ply
format ascii 1.0
element vertex 1750
property float x
property float y
property float z
property uchar red
property uchar green
property uchar blue
end_header
123 379 -369.577 255 236 242
124 379 -370.338 255 236 239
132 379 -454.725 255 243 249
133 379 -456.051 255 246 254
134 379 -455.141 255 245 253
135 379 -454.426 255 245 252
136 379 -454.465 255 244 251
137 379 -454.231 255 244 251
138 379 -452.29 255 242 254
139 379 -453.19 255 243 255
140 379 -447.89 255 245 255
216 379 -375.744 252 238 251
217 379 -374.461 165 157 170
99 378 -376.642 247 212 219
100 378 -376.228 252 214 225
101 378 -374.408 250 212 223
102 378 -375.939 248 210 223
103 378 -376.331 245 207 220
116 378 -443.429 241 203 218
117 378 -444.361 245 209 223
118 378 -445.621 247 211 225
119 378 -445.474 247 213 227
120 378 -444.607 255 223 236
121 378 -444.438 254 224 236
122 378 -446.063 254 226 238
123 378 -446.048 253 227 238
124 378 -447.623 249 223 234
125 378 -447.415 250 227 237
126 378 -446.796 255 232 242
127 378 -447.648 255 234 243
128 378 -447.733 255 241 253
129 378 -447.486 255 243 255
130 378 -447.285 255 243 255
131 378 -447.578 255 242 254
132 378 -447.811 255 241 253
133 378 -447.81 255 241 253
134 378 -447.812 255 240 252
135 378 -447.767 255 241 253
136 378 -448.049 255 244 253
137 378 -447.477 255 240 252
138 378 -447.233 255 240 252
139 378 -445.87 255 244 255
140 378 -445.605 255 239 252
141 378 -444.941 253 237 250
142 378 -445.194 250 234 247
143 378 -442.71 245 227 241
144 378 -445.783 245 223 236
216 378 -369.566 252 238 253
217 378 -367.311 171 165 179
218 378 -366.527 58 60 73
80 377 -367.486 233 207 210
81 377 -368.942 232 205 210
82 377 -367.984 233 206 211
83 377 -366.337 237 210 215
84 377 -368.227 240 213 218
85 377 -368.169 242 216 219
86 377 -367.179 247 218 222
87 377 -368.033 251 221 223
88 377 -368.025 251 221 223
89 377 -366.837 254 224 226
90 377 -365.322 252 222 224
91 377 -367.502 253 222 227
92 377 -369.22 254 223 228
93 377 -369.039 254 225 230
94 377 -366.521 253 224 229
95 377 -367.572 247 218 223
96 377 -368.756 242 211 217
102 377 -439.343 219 188 196
103 377 -441.826 215 185 195
104 377 -440.349 219 189 199
105 377 -440.668 218 186 197
106 377 -440.682 219 187 198
107 377 -440.86 220 188 201
108 377 -441.142 218 186 199
109 377 -441.018 219 187 200
110 377 -440.937 221 189 202
111 377 -441.432 221 188 199
112 377 -440.757 226 188 201
113 377 -440.182 237 196 210
114 377 -440.357 239 198 212
115 377 -439.526 249 208 222
116 377 -439.428 255 218 231
117 377 -438.935 255 231 246
118 377 -438.987 255 232 246
119 377 -438.736 255 234 248
120 377 -440.114 255 231 245
121 377 -440.005 255 230 243
122 377 -441.148 255 231 246
123 377 -440.873 255 231 245
124 377 -441.111 254 226 238
125 377 -441.538 250 224 235
126 377 -442 250 224 235
127 377 -442.212 250 225 231
128 377 -442.661 255 234 239
129 377 -442.491 252 233 235
130 377 -442.492 250 231 233
131 377 -442.556 249 229 231
132 377 -442.377 248 226 229
133 377 -442.095 246 224 227
134 377 -442.031 249 224 228
135 377 -442.063 252 227 231
136 377 -441.279 247 224 234
137 377 -441.652 254 231 241
138 377 -441.842 253 232 241
139 377 -442 255 235 247
140 377 -441.262 255 237 249
141 377 -441.317 255 240 252
142 377 -441.206 255 238 250
143 377 -441.152 255 237 250
144 377 -440.345 255 234 248
145 377 -440 255 233 247
146 377 -439.255 255 230 245
147 377 -438.055 255 230 244
148 377 -437.217 255 230 242
149 377 -436.659 255 230 240
150 377 -436.414 255 229 240
151 377 -435.938 255 231 239
152 377 -435.231 255 229 237
153 377 -428.123 255 229 240
216 377 -362.834 255 245 255
217 377 -362.554 189 182 200
218 377 -365.022 89 91 106
73 376 -359.668 236 201 208
74 376 -365.026 254 222 227
75 376 -362.451 255 226 231
76 376 -362.433 255 233 235
77 376 -362.014 255 237 237
78 376 -362.381 255 236 235
79 376 -361.669 255 235 234
80 376 -361 255 231 231
81 376 -362.278 253 228 231
82 376 -359.903 242 217 220
83 376 -361.333 245 220 223
84 376 -363.11 241 216 219
85 376 -361.221 239 214 217
86 376 -363.744 237 211 214
93 376 -430.696 224 189 193
94 376 -428.717 229 193 197
95 376 -431.906 224 188 192
96 376 -433.169 229 192 200
97 376 -432.514 229 193 203
98 376 -434.714 233 200 209
99 376 -435.033 230 199 207
100 376 -435.132 231 204 211
101 376 -434.226 236 211 217
102 376 -434.04 235 210 216
103 376 -434.14 243 218 224
104 376 -433.976 240 215 221
105 376 -433.942 245 220 226
106 376 -433.479 246 221 227
107 376 -433.325 252 225 234
108 376 -433.235 252 225 234
109 376 -432.832 255 228 237
110 376 -433.868 253 226 235
111 376 -433.167 255 228 238
112 376 -434.536 255 222 232
113 376 -434.383 255 220 231
114 376 -432.827 254 216 227
115 376 -432.926 248 210 223
116 376 -432.444 255 215 229
117 376 -434.196 252 211 225
118 376 -434.001 255 213 230
119 376 -435.92 229 186 203
120 376 -437.573 239 200 203
121 376 -440.757 245 206 211
122 376 -441.889 242 202 210
123 376 -442.49 231 194 202
124 376 -443.144 234 199 206
125 376 -445.206 222 189 198
126 376 -445.694 233 202 210
127 376 -448.132 228 198 206
128 376 -447.386 236 207 211
129 376 -447.69 234 203 208
130 376 -446.817 237 207 209
131 376 -446.752 232 200 203
132 376 -447.671 238 203 207
133 376 -447.505 244 210 211
134 376 -446.905 241 205 207
135 376 -447.338 253 217 219
136 376 -445.589 234 200 201
137 376 -444.593 234 199 203
138 376 -445.349 252 220 225
139 376 -444.615 255 237 242
140 376 -442.333 255 237 242
141 376 -440.382 255 243 250
142 376 -438.145 255 239 248
143 376 -436.507 255 237 245
144 376 -435.639 255 231 244
145 376 -434.488 255 239 253
146 376 -433.966 255 241 254
147 376 -433.869 255 237 248
148 376 -433.365 255 238 247
149 376 -433.228 255 241 247
150 376 -433.222 255 240 246
151 376 -433.437 255 240 246
152 376 -433.736 255 237 243
153 376 -432.825 255 240 246
154 376 -433.637 255 238 244
155 376 -432.533 255 241 249
156 376 -432.899 253 227 238
157 376 -432.784 251 225 238
217 376 -352.498 214 206 227
218 376 -357.838 126 127 145
219 376 -362.529 53 59 73
69 375 -355.347 241 210 216
70 375 -353.82 243 212 218
76 375 -425.411 208 175 184
77 375 -427.923 207 176 184
78 375 -428.483 206 175 183
79 375 -429.837 204 174 182
80 375 -427.988 207 177 187
81 375 -427.715 210 180 190
82 375 -428.53 211 181 191
83 375 -428.035 215 184 192
84 375 -427.483 220 187 194
85 375 -426.429 229 194 201
86 375 -425.171 237 202 209
87 375 -425.621 240 203 211
88 375 -425.45 245 208 216
89 375 -425.375 246 211 218
90 375 -425.804 247 212 219
91 375 -425.707 250 215 222
92 375 -425.725 252 217 223
93 375 -426.038 253 217 221
94 375 -426.243 254 218 220
95 375 -426.3 255 219 223
96 375 -427.053 255 222 228
97 375 -426.965 255 225 231
98 375 -428.029 255 232 237
99 375 -428.343 255 231 236
100 375 -428.592 255 232 235
101 375 -428.823 255 236 238
102 375 -429.363 255 237 238
103 375 -429.337 255 241 242
104 375 -429.064 255 240 242
105 375 -429.031 255 242 245
106 375 -429.27 255 238 241
107 375 -429.739 255 237 240
108 375 -429.83 255 234 240
109 375 -429.796 255 233 239
110 375 -430.943 255 236 242
111 375 -431.008 255 233 240
112 375 -432.206 255 226 233
113 375 -433.817 255 223 230
114 375 -435.08 241 202 207
115 375 -438.388 238 197 201
116 375 -438.785 236 196 197
117 375 -442.004 254 214 215
118 375 -442.985 255 217 217
119 375 -447.137 254 216 215
120 375 -450.496 255 223 224
121 375 -451.591 255 223 226
122 375 -452.34 255 227 232
123 375 -454.41 255 220 228
124 375 -455.802 251 214 221
125 375 -456.446 231 196 203
126 375 -455.082 225 194 200
127 375 -457.553 208 179 184
128 375 -458.005 207 178 180
129 375 -457.408 207 177 177
130 375 -455.409 211 179 180
131 375 -455.401 216 182 181
132 375 -455.998 229 193 193
133 375 -455.709 239 201 200
134 375 -455.972 240 200 198
135 375 -455.6 249 209 207
136 375 -454.183 231 193 192
137 375 -454.257 208 172 172
138 375 -454.008 213 179 180
139 375 -453.024 240 210 212
140 375 -450.47 250 221 225
141 375 -448.254 250 223 228
142 375 -447.024 248 225 231
143 375 -445.682 255 234 240
144 375 -442.911 255 236 242
145 375 -440.487 255 235 241
146 375 -438.346 255 236 241
147 375 -436.844 254 234 236
148 375 -436.174 253 234 236
149 375 -435.994 255 237 239
150 375 -434.973 255 237 239
151 375 -433.457 255 237 239
152 375 -432.475 255 231 235
153 375 -430.798 255 235 240
154 375 -429.713 254 232 235
155 375 -428.698 255 238 244
156 375 -428.288 255 238 246
157 375 -428.056 255 237 248
158 375 -428.07 255 239 252
159 375 -427.969 255 234 245
160 375 -427.496 255 239 248
161 375 -427.145 255 239 245
162 375 -426.817 255 241 247
163 375 -426.214 255 243 249
164 375 -424.872 255 243 248
165 375 -422.59 255 241 248
166 375 -420.813 255 239 246
167 375 -416.338 255 238 245
217 375 -342.777 229 220 241
218 375 -347.12 156 155 173
219 375 -348.061 75 78 95
62 374 -348.463 221 189 200
63 374 -349.574 243 213 221
64 374 -350.235 246 217 222
65 374 -349.879 247 221 224
66 374 -350.386 249 222 227
67 374 -348.677 240 215 219
72 374 -424.112 199 177 180
73 374 -423.031 206 173 182
74 374 -423.126 207 174 183
75 374 -423.551 204 173 181
76 374 -422.891 208 177 185
77 374 -423.305 208 177 185
78 374 -422.949 215 184 192
79 374 -423.223 215 183 194
80 374 -422.627 221 189 202
81 374 -422.268 225 191 205
82 374 -422.282 229 196 207
83 374 -421.925 235 199 211
84 374 -422.022 239 201 212
85 374 -422.022 246 206 217
86 374 -422.11 248 208 219
87 374 -423.416 241 201 212
88 374 -422.209 253 213 224
89 374 -422.98 249 209 220
90 374 -424 243 203 212
91 374 -423.802 247 207 216
92 374 -425.24 241 209 220
93 374 -425.714 241 211 221
94 374 -426.305 244 214 222
95 374 -426.906 247 216 224
96 374 -428.327 244 209 216
97 374 -428.945 245 208 215
98 374 -429.78 247 210 217
99 374 -429.691 240 205 211
100 374 -430.337 234 199 205
101 374 -430.695 231 196 202
102 374 -432.433 239 204 208
103 374 -433.297 235 200 204
104 374 -433.078 227 192 196
105 374 -433.991 223 191 194
106 374 -435.159 220 188 191
107 374 -436.125 225 193 198
108 374 -438.199 223 191 196
109 374 -439.671 216 184 189
110 374 -441.415 217 185 190
111 374 -441.25 214 182 187
112 374 -443.705 204 172 177
113 374 -444.906 207 171 175
114 374 -444.705 187 146 150
115 374 -447.292 191 149 151
116 374 -448.891 199 154 157
117 374 -450.252 225 179 181
118 374 -449.373 217 171 173
119 374 -450.794 208 164 165
120 374 -451.493 214 169 172
121 374 -449.53 195 150 155
122 374 -447.584 189 146 153
123 374 -447.967 173 132 140
124 374 -450.979 150 110 118
125 374 -450.936 125 90 97
126 374 -447.471 114 83 89
127 374 -453.931 91 64 69
128 374 -453.504 88 67 66
129 374 -450.826 86 67 63
130 374 -446.523 88 64 62
131 374 -447.748 97 72 68
132 374 -448.748 113 84 78
133 374 -449.222 120 89 84
134 374 -450.907 128 93 87
135 374 -449.364 138 101 95
136 374 -448.431 150 112 109
137 374 -451.076 134 99 95
138 374 -453.173 129 95 94
139 374 -452.929 146 114 115
140 374 -450.539 154 123 128
141 374 -450.407 160 133 138
142 374 -452.381 177 152 158
143 374 -451.25 197 172 178
144 374 -449.773 235 208 215
145 374 -449.246 247 220 225
146 374 -449 255 235 239
147 374 -448.736 255 241 244
148 374 -448.452 255 245 247
149 374 -448.034 255 245 245
150 374 -446.182 255 243 243
151 374 -443.559 255 247 248
152 374 -443.051 255 243 244
153 374 -438.641 255 240 243
154 374 -434.663 255 241 245
155 374 -430.111 255 236 242
156 374 -425.822 249 226 232
157 374 -424.246 246 223 229
158 374 -422.578 255 233 244
159 374 -422.221 255 235 246
160 374 -421.999 255 240 246
161 374 -422.126 255 241 244
162 374 -422.391 255 239 243
163 374 -422.864 255 237 241
164 374 -422.609 255 238 242
165 374 -422.274 255 238 244
166 374 -422.491 255 238 244
167 374 -422.062 255 237 246
168 374 -422.01 255 236 245
169 374 -421.141 255 239 248
170 374 -420.438 255 237 245
171 374 -419.93 255 243 251
172 374 -419.386 254 231 241
173 374 -414.043 255 234 244
174 374 -413.562 251 228 238
217 374 -342.607 243 231 251
218 374 -343.395 186 182 199
219 374 -343.783 92 91 107
59 373 -345.316 222 192 200
60 373 -344.285 229 199 207
61 373 -343.401 227 197 205
64 373 -416.012 197 167 177
65 373 -416.239 200 167 178
66 373 -415.739 203 170 181
67 373 -413.024 208 175 186
68 373 -416.267 212 179 190
69 373 -416.163 213 180 191
70 373 -416.954 220 187 198
71 373 -417.834 226 193 204
72 373 -417.772 226 195 203
73 373 -416.788 235 204 212
74 373 -416.422 241 211 219
75 373 -415.878 245 215 223
76 373 -415.921 250 220 228
77 373 -416.831 246 216 224
78 373 -416.997 248 221 228
79 373 -417.897 243 216 223
80 373 -418.302 241 221 222
81 373 -419.676 243 221 223
82 373 -420.964 243 221 223
83 373 -421.868 240 220 221
84 373 -423.509 241 221 222
85 373 -424.728 241 221 222
86 373 -425.466 236 214 216
87 373 -428.124 235 210 213
88 373 -428.673 233 208 212
89 373 -428.982 227 200 207
90 373 -429.747 219 192 201
91 373 -428.84 219 192 201
92 373 -433.65 220 193 202
93 373 -435.151 213 187 196
94 373 -435.401 202 179 185
95 373 -438.581 193 168 174
96 373 -438.826 191 160 166
97 373 -439.386 186 154 159
98 373 -441.03 170 138 143
99 373 -442.63 151 119 124
100 373 -445.768 135 104 109
101 373 -444.819 124 93 98
102 373 -445.197 134 103 108
103 373 -447.016 132 102 104
104 373 -448.89 121 91 93
105 373 -448.068 122 92 94
106 373 -448.92 116 87 89
107 373 -451.076 107 78 82
108 373 -456.062 91 62 66
109 373 -459.805 79 50 54
110 373 -458.858 82 53 57
111 373 -457.749 86 57 61
112 373 -453.989 86 60 61
113 373 -454.198 96 67 69
114 373 -456.099 88 54 55
115 373 -454.741 87 51 51
116 373 -450.484 92 53 54
117 373 -444.78 106 66 67
118 373 -443.206 94 55 56
119 373 -450.775 85 46 47
120 373 -453.932 76 40 42
123 373 -377.755 56 43 50
124 373 -372.485 48 36 40
125 373 -374.975 50 39 43
126 373 -378.18 50 39 43
127 373 -376.303 47 36 40
130 373 -373.189 47 35 39
142 373 -457.982 59 39 41
144 373 -447.207 92 67 71
145 373 -447.004 104 79 83
146 373 -447.086 122 100 103
147 373 -446.622 143 123 124
148 373 -445.95 164 146 146
149 373 -446.255 177 159 159
150 373 -446.005 186 168 168
151 373 -444.925 204 184 185
152 373 -444.707 234 212 214
153 373 -443.54 245 223 225
154 373 -443.684 255 234 237
155 373 -442.221 255 237 241
156 373 -438.844 255 239 242
157 373 -438.287 255 241 246
158 373 -436.877 255 242 246
159 373 -436.39 255 241 245
160 373 -431.183 255 244 246
161 373 -429.72 255 244 246
162 373 -427.896 255 241 243
163 373 -426.01 255 242 244
164 373 -423.862 255 239 244
165 373 -422.211 255 236 242
166 373 -421.358 255 237 243
167 373 -420.508 255 230 239
168 373 -418.774 250 224 233
169 373 -418.319 249 223 232
170 373 -417.226 255 228 237
171 373 -417.151 255 230 239
172 373 -416.413 254 231 239
173 373 -415.805 255 238 247
174 373 -415.818 255 238 247
175 373 -415.214 255 239 248
176 373 -415.071 255 239 248
177 373 -414.729 255 244 250
178 373 -415.019 255 242 249
179 373 -414.478 255 242 247
180 373 -413.805 255 241 246
181 373 -412.86 255 243 249
182 373 -411.85 255 237 243
183 373 -408.535 255 236 242
184 373 -407.623 255 238 244
185 373 -398.38 255 240 246
218 373 -337.35 181 174 190
219 373 -336.697 92 90 104
54 372 -337.745 222 199 205
55 372 -337.641 228 205 211
56 372 -337.89 242 217 223
57 372 -337.61 242 217 223
58 372 -338.278 236 211 217
59 372 -338.18 229 204 210
61 372 -411.49 189 164 168
62 372 -411.22 186 166 168
63 372 -410.815 193 171 174
64 372 -411.378 195 165 175
65 372 -411.278 200 168 181
66 372 -409.787 213 181 194
67 372 -408 230 198 211
68 372 -409.118 248 216 227
69 372 -409.087 251 219 230
70 372 -410.533 255 228 238
71 372 -410.185 255 227 237
72 372 -411.699 252 225 232
73 372 -411.162 251 224 231
74 372 -412.783 247 227 226
75 372 -413.863 242 222 221
76 372 -415.241 239 221 219
77 372 -417.384 234 216 214
78 372 -418.22 229 211 209
79 372 -419.46 220 205 202
80 372 -419.998 212 196 196
81 372 -422.86 209 193 193
82 372 -424.407 199 183 183
83 372 -424.721 181 167 164
84 372 -426.301 172 158 155
85 372 -428.044 162 148 145
86 372 -428.604 145 129 129
87 372 -431.658 133 117 117
88 372 -435.269 133 114 116
89 372 -434.004 126 105 110
90 372 -435.547 114 93 100
91 372 -430.938 108 87 94
92 372 -440.705 101 82 88
93 372 -441.961 93 74 80
94 372 -433.241 87 70 76
95 372 -440.079 81 62 66
96 372 -446.142 76 51 55
97 372 -439.088 76 49 54
121 372 -372.618 47 40 47
138 372 -367.061 44 40 39
141 372 -366.419 41 37 36
142 372 -359.08 34 32 35
143 372 -365.728 39 33 33
152 372 -435.992 91 65 66
153 372 -437.401 145 116 120
154 372 -439.314 167 136 141
155 372 -440.371 203 170 177
156 372 -439.021 236 205 211
157 372 -439.304 250 219 225
158 372 -439.071 255 241 249
159 372 -439.164 255 238 241
160 372 -438.753 255 239 239
161 372 -437.52 253 242 240
162 372 -437 253 239 238
163 372 -436.913 252 238 237
164 372 -435.644 255 240 241
165 372 -433.396 255 243 245
166 372 -431.002 255 243 245
167 372 -429.014 255 235 241
168 372 -425.945 249 226 232
169 372 -424.521 248 225 231
170 372 -420.819 245 222 228
171 372 -419.647 247 222 228
172 372 -417.744 243 218 224
173 372 -415.971 244 222 225
174 372 -414.967 242 220 223
175 372 -413.063 243 218 222
176 372 -413.659 247 220 225
177 372 -412.627 249 220 225
178 372 -412.817 250 221 226
179 372 -412.186 248 218 226
180 372 -412.104 247 217 225
181 372 -411.21 249 224 228
182 372 -409.834 255 231 236
183 372 -409.602 255 233 238
184 372 -409.611 255 229 234
185 372 -408.471 255 232 240
186 372 -408.174 255 232 239
187 372 -407.998 255 233 240
188 372 -406.859 255 236 243
189 372 -405.754 255 238 247
190 372 -405.647 255 239 248
191 372 -405.542 255 236 247
192 372 -405.496 255 235 247
193 372 -405.774 255 234 247
194 372 -406.071 255 234 246
195 372 -406.138 254 234 245
196 372 -406.651 253 233 244
197 372 -407.528 251 231 240
198 372 -405.95 251 231 240
199 372 -404.204 252 232 241
218 372 -325.189 137 129 142
219 372 -324.082 90 87 98
50 371 -332.751 210 190 192
51 371 -336.258 209 189 191
52 371 -333.453 212 192 194
56 371 -401.461 190 167 175
57 371 -405.776 186 160 169
58 371 -404.335 192 162 170
59 371 -404.206 195 165 173
60 371 -403.8 203 174 179
61 371 -404.425 207 182 186
62 371 -404.236 206 186 187
63 371 -404.648 214 194 196
64 371 -402.772 235 208 217
65 371 -403.245 238 208 220
66 371 -404.879 234 204 216
67 371 -408.663 237 214 222
68 371 -411.055 237 214 222
69 371 -410.786 195 174 181
70 371 -413.896 193 172 177
71 371 -414.635 163 144 146
72 371 -414.577 155 137 137
73 371 -410.2 132 114 114
74 371 -413.358 128 110 108
75 371 -415.791 110 95 92
76 371 -421.783 101 86 83
77 371 -429.655 97 83 80
78 371 -425.571 98 84 81
79 371 -423.184 85 74 70
80 371 -424.766 82 71 69
81 371 -431.202 79 69 67
82 371 -432.73 69 60 55
104 371 -363.961 51 42 35
105 371 -365.815 52 43 36
106 371 -366.018 50 41 34
157 371 -434.504 66 39 44
158 371 -433.808 105 80 84
159 371 -433.596 110 90 92
160 371 -432.732 138 127 123
161 371 -432.851 139 130 123
162 371 -434.285 145 134 128
163 371 -434.422 158 144 141
164 371 -433.333 186 171 168
165 371 -433.09 219 201 201
166 371 -432.628 242 222 223
167 371 -431.774 255 236 238
168 371 -431.947 255 237 240
169 371 -432.443 255 240 243
170 371 -431.822 255 237 240
171 371 -431.3 255 238 241
172 371 -430.486 255 236 239
173 371 -427.838 255 239 242
174 371 -426.579 255 236 238
175 371 -425.547 255 234 236
176 371 -423.857 255 236 239
177 371 -421.684 255 234 237
178 371 -421.301 255 235 238
179 371 -419.271 255 234 239
180 371 -418.623 255 229 234
181 371 -416.319 245 218 225
182 371 -412.163 236 206 214
183 371 -410.956 237 207 217
184 371 -410.01 235 205 215
185 371 -408.706 234 204 214
186 371 -408.806 236 206 216
187 371 -408.337 238 208 218
188 371 -406.5 237 210 219
189 371 -405.638 242 215 222
190 371 -405.013 247 220 227
191 371 -404.153 253 227 236
192 371 -403.846 254 233 242
193 371 -403.678 255 235 246
194 371 -403.438 255 239 248
195 371 -403.376 255 242 250
196 371 -403.442 255 243 249
197 371 -403.526 255 243 248
198 371 -403.347 255 244 249
199 371 -403.025 255 245 250
200 371 -403.212 255 243 246
201 371 -402.956 255 242 245
202 371 -401.876 255 246 247
203 371 -401.045 255 243 245
204 371 -399.063 255 243 245
205 371 -390.561 255 246 248
213 371 -362.854 195 172 178
214 371 -372.275 146 125 130
216 371 -338.88 80 60 71
217 371 -345.029 91 75 85
219 371 -320.5 93 88 95
220 371 -325.989 45 44 52
46 370 -326.777 221 199 202
47 370 -326.505 229 204 208
48 370 -326.016 227 205 208
49 370 -325.293 232 210 213
50 370 -324.127 229 207 210
51 370 -326.588 210 188 191
53 370 -398.124 186 159 168
54 370 -399.647 182 159 167
55 370 -398.349 188 165 173
56 370 -398.87 186 160 169
57 370 -398.844 194 167 176
58 370 -396.971 216 185 193
59 370 -395.576 230 199 207
60 370 -395.519 246 215 221
61 370 -396.776 255 230 233
62 370 -397.986 251 229 231
63 370 -400.306 255 234 237
64 370 -401.485 254 235 239
65 370 -404.757 248 232 235
66 370 -408.569 233 216 222
67 370 -413.307 223 206 212
68 370 -415.881 189 172 178
69 370 -422.867 134 117 123
70 370 -429.51 99 83 86
71 370 -444.408 64 49 52
72 370 -441.354 57 43 43
73 370 -313.752 42 40 41
75 370 -330.719 40 39 35
76 370 -326.772 44 43 38
79 370 -343.89 39 40 32
86 370 -356.283 45 29 32
154 370 -361.977 38 29 30
156 370 -361.793 37 28 29
157 370 -362.645 41 32 35
158 370 -360.736 37 28 31
160 370 -359.363 36 28 25
165 370 -427.073 99 81 79
166 370 -426.7 148 128 129
167 370 -426.237 202 180 182
168 370 -426.56 215 190 193
169 370 -425.866 229 204 208
170 370 -426.443 234 209 213
171 370 -426.005 236 211 214
172 370 -425.752 232 210 212
173 370 -427.074 234 212 214
174 370 -426.406 231 211 212
175 370 -426.339 237 217 216
176 370 -426.551 239 218 217
177 370 -426.193 243 221 223
178 370 -426.041 250 228 230
179 370 -425.657 255 233 236
180 370 -425.443 255 236 239
181 370 -424.875 253 230 236
182 370 -421.415 243 220 226
183 370 -419.994 242 219 225
184 370 -418.235 242 219 227
185 370 -416.478 241 218 226
186 370 -416.28 242 219 227
187 370 -415.244 244 221 229
188 370 -413.238 244 221 229
189 370 -412.254 244 221 229
190 370 -411.528 244 223 228
191 370 -410.646 244 223 228
192 370 -410.194 246 225 232
193 370 -409.74 247 226 235
194 370 -408.81 246 225 234
195 370 -407.808 246 225 234
196 370 -407.344 248 227 236
197 370 -406.884 249 228 237
198 370 -406.38 248 228 237
199 370 -405.837 248 228 237
200 370 -404.714 246 226 235
201 370 -405.135 248 228 237
202 370 -404.44 249 229 238
203 370 -404.53 249 229 238
204 370 -403.667 249 229 238
205 370 -401.067 250 230 239
206 370 -399.781 255 235 236
207 370 -398.748 255 241 246
208 370 -399.355 255 239 251
209 370 -397.044 255 237 251
210 370 -396.404 255 239 248
211 370 -392.44 208 187 196
212 370 -369.31 189 166 172
213 370 -345.378 111 95 98
214 370 -337.219 63 44 48
215 370 -344.275 53 34 40
216 370 -339.378 94 75 81
217 370 -338.105 112 97 104
218 370 -333.571 126 115 123
219 370 -324.624 98 93 99
220 370 -328.879 58 57 63
221 370 -333.844 42 43 48
222 370 -338.225 39 39 47
50 369 -392.436 190 163 172
51 369 -391.317 199 169 179
52 369 -391.975 203 173 183
53 369 -391.917 206 176 186
54 369 -391.871 207 180 189
55 369 -390.297 221 195 204
56 369 -390.866 226 203 211
57 369 -393.316 225 202 210
58 369 -394.204 223 204 208
59 369 -396.288 216 195 200
60 369 -397.878 205 183 186
61 369 -399.175 190 170 172
62 369 -399.652 160 140 142
63 369 -402.372 158 139 143
64 369 -400.785 135 120 123
65 369 -406.374 124 112 114
66 369 -412.905 108 96 100
67 369 -416.277 95 84 88
68 369 -404.035 73 62 66
168 369 -412.089 60 42 42
169 369 -413.134 88 68 69
170 369 -417.074 102 82 83
171 369 -416.506 107 87 88
172 369 -420.158 104 86 86
173 369 -420.383 106 88 88
174 369 -421.444 108 93 90
175 369 -420.419 122 107 104
176 369 -421.536 129 111 109
177 369 -420.146 147 129 127
178 369 -420.365 169 149 150
179 369 -418.788 190 170 171
180 369 -419.67 220 200 201
181 369 -419.86 248 228 230
182 369 -419.768 255 237 239
183 369 -419.732 255 240 245
184 369 -419.581 255 243 248
185 369 -418.854 255 241 246
186 369 -419.029 255 241 246
187 369 -418.792 255 241 246
188 369 -418.219 255 241 243
189 369 -418.757 255 240 242
190 369 -418.726 255 240 241
191 369 -418.639 255 240 242
192 369 -417.885 255 239 244
193 369 -417.693 255 239 244
194 369 -417.065 255 238 245
195 369 -416.243 255 237 246
196 369 -415.88 255 239 248
197 369 -415.58 255 241 250
198 369 -414.927 255 241 250
199 369 -414.21 255 241 250
200 369 -414.051 255 238 247
201 369 -414.036 255 240 249
202 369 -412.858 255 241 247
203 369 -412.727 255 241 247
204 369 -410.832 255 241 247
205 369 -406.085 255 242 248
206 369 -402.473 255 243 249
207 369 -399.597 255 242 251
208 369 -397.307 255 240 250
209 369 -394.739 241 220 229
210 369 -388.047 236 215 222
211 369 -381.082 148 129 133
212 369 -371.511 117 98 100
213 369 -355.611 66 46 47
214 369 -324.061 45 30 33
215 369 -345.286 73 53 54
216 369 -347.867 116 95 100
217 369 -346.946 122 102 113
218 369 -348.355 121 109 121
219 369 -342.319 84 79 83
220 369 -334.51 52 51 56
222 369 -351.082 35 35 37
36 368 -314.424 185 164 179
37 368 -314.513 186 163 179
38 368 -313 188 166 178
39 368 -317.281 196 175 182
40 368 -312.048 204 185 191
41 368 -313.172 209 192 198
42 368 -314.928 220 203 209
43 368 -310.888 230 211 217
44 368 -324.67 194 173 180
45 368 -381.291 183 150 169
46 368 -385.657 197 160 177
47 368 -387.546 194 158 172
48 368 -387.765 191 159 174
49 368 -386.161 205 174 189
50 368 -386.152 199 171 183
51 368 -385.337 227 200 209
52 368 -384.814 238 206 217
53 368 -385.682 246 215 223
54 368 -386.835 254 224 232
55 368 -387.72 255 228 235
56 368 -392.136 251 236 239
57 368 -395.594 239 224 227
58 368 -397.022 199 180 182
59 368 -401.889 175 155 157
60 368 -408.135 145 124 129
61 368 -413.42 117 98 102
62 368 -422.678 80 65 68
63 368 -320.448 41 42 44
64 368 -337.156 36 40 43
65 368 -325.155 35 39 42
179 368 -409.838 74 54 55
180 368 -411.754 109 87 89
181 368 -412.708 150 125 128
182 368 -413.251 168 143 146
183 368 -413.329 195 173 175
184 368 -413.323 197 177 178
185 368 -413.851 210 192 192
186 368 -414.422 222 204 202
187 368 -414.588 224 204 203
188 368 -414.31 225 206 202
189 368 -413.974 232 211 208
190 368 -413.561 240 216 212
191 368 -413.198 244 219 215
192 368 -412.841 248 222 221
193 368 -413.275 255 226 230
194 368 -413.767 255 233 238
195 368 -413.874 255 235 244
196 368 -414.019 255 234 247
197 368 -413.904 255 232 247
198 368 -413.574 255 237 251
199 368 -413.34 255 241 254
200 368 -413.632 255 238 248
201 368 -413.543 255 240 248
202 368 -413.371 255 241 247
203 368 -413.153 246 223 229
204 368 -412.638 253 228 234
205 368 -410.83 251 226 232
206 368 -409.16 255 238 244
207 368 -407.97 247 224 232
208 368 -404.444 251 230 237
209 368 -400.773 197 180 186
210 368 -388.656 105 92 99
211 368 -377.551 75 59 59
212 368 -365.657 69 54 51
213 368 -374.854 57 44 38
215 368 -368.728 72 61 57
216 368 -367.37 106 94 94
217 368 -362.565 103 92 96
218 368 -359.607 105 98 105
219 368 -356.507 68 63 70
31 367 -385.915 204 197 204
41 367 -382 205 188 196
42 367 -380.531 215 195 206
43 367 -375.936 231 207 221
44 367 -380.865 224 192 215
45 367 -385.6 227 211 222
46 367 -383.036 206 185 200
47 367 -383.091 206 184 197
48 367 -379.313 227 194 211
49 367 -378.81 221 193 208
50 367 -385.346 205 186 192
51 367 -386.38 203 184 190
52 367 -386.659 184 164 173
53 367 -386.97 177 157 166
54 367 -386.569 165 150 155
55 367 -382.982 125 113 117
56 367 -389.511 112 103 104
57 367 -401.539 108 98 99
58 367 -398.716 80 66 66
59 367 -393.44 76 60 61
60 367 -398.129 75 59 62
61 367 -400.602 70 55 58
63 367 -346.029 62 57 54
183 367 -402.161 59 39 40
184 367 -404.484 70 55 52
185 367 -406.121 79 65 62
186 367 -407.526 89 76 70
187 367 -407.386 96 81 76
188 367 -406.631 102 85 78
189 367 -406.143 109 90 83
190 367 -405.753 121 98 90
191 367 -405.199 130 105 100
192 367 -405.426 149 121 118
193 367 -406.243 161 131 131
194 367 -406.858 177 146 151
195 367 -407.128 191 161 169
196 367 -407.198 200 172 186
197 367 -407.075 209 181 196
198 367 -406.645 219 192 207
199 367 -406.454 227 201 214
200 367 -406.968 239 213 224
201 367 -407.301 231 205 214
202 367 -407.473 242 217 223
203 367 -407.838 228 203 207
204 367 -407.894 223 196 201
205 367 -407.848 234 207 212
206 367 -407.591 255 229 236
207 367 -407.738 227 202 208
208 367 -406.374 174 155 161
209 367 -404.535 113 101 105
210 367 -394.5 43 34 37
213 367 -394.249 37 39 38
214 367 -394.616 40 45 41
215 367 -379.66 53 49 40
216 367 -382.599 53 55 50
217 367 -377.108 51 47 46
218 367 -367.33 55 51 52
219 367 -365.999 35 30 34
32 366 -378.363 255 249 255
36 366 -376.181 255 245 253
38 366 -377.008 255 249 253
39 366 -374.894 255 238 255
40 366 -374.412 255 234 250
41 366 -375.315 255 239 252
42 366 -376.596 255 247 255
43 366 -375.78 255 237 255
44 366 -376.484 255 245 255
45 366 -377.141 255 244 255
46 366 -376.518 251 228 244
47 366 -377.266 255 232 248
48 366 -376.685 249 229 238
49 366 -385.396 239 224 229
50 366 -391.064 216 203 210
51 366 -385.986 153 142 148
52 366 -388.087 119 106 113
53 366 -394.056 85 74 80
54 366 -418.427 62 51 57
59 366 -339.533 57 51 55
63 366 -353.522 62 60 61
193 366 -398.042 56 26 28
194 366 -400.268 67 38 42
195 366 -400.013 78 48 56
196 366 -400.283 84 56 68
197 366 -400.029 90 62 76
198 366 -399.412 95 69 82
199 366 -399.518 100 74 87
200 366 -400.054 112 86 95
201 366 -400.53 112 87 93
202 366 -400.337 128 103 107
203 366 -400.658 125 100 104
204 366 -401.131 130 103 108
205 366 -401.115 144 117 122
206 366 -401.242 166 139 146
207 366 -401.866 146 123 131
208 366 -402.412 93 76 82
209 366 -401.74 75 64 68
210 366 -401.144 54 48 50
211 366 -402.489 56 54 55
212 366 -403.083 53 55 54
213 366 -399.763 60 64 63
214 366 -394.925 52 57 53
215 366 -390.529 39 44 40
216 366 -390.825 45 47 42
217 366 -387.168 32 33 28
34 365 -370.51 255 248 255
35 365 -370.795 255 247 255
36 365 -370.234 255 246 254
37 365 -370.167 255 245 253
38 365 -370.442 255 245 253
39 365 -370.62 255 244 252
40 365 -369.593 250 225 244
41 365 -369.78 255 237 255
42 365 -370.075 255 238 250
43 365 -375.427 250 232 244
44 365 -373.322 240 224 235
45 365 -374.986 199 181 195
46 365 -374.68 192 169 187
47 365 -373.714 166 145 160
48 365 -374.342 143 130 137
49 365 -385.244 133 124 127
50 365 -385.893 126 121 125
51 365 -372.831 78 76 79
58 365 -352.308 61 59 64
206 365 -393.145 49 28 33
207 365 -395 47 30 36
209 365 -391.99 43 37 39
210 365 -394.205 57 55 56
211 365 -394.695 72 72 72
212 365 -394.806 74 78 77
213 365 -394.572 84 88 87
214 365 -394.364 78 83 79
215 365 -395.449 61 66 62
216 365 -395.277 52 54 49
217 365 -392.698 39 38 34
220 365 -388.717 31 27 26
33 364 -364.401 255 246 254
34 364 -363.612 253 245 255
35 364 -364 253 243 252
36 364 -364.424 255 245 255
37 364 -364.042 255 245 255
38 364 -364.187 255 244 255
39 364 -364.49 255 245 255
40 364 -364.293 253 235 249
41 364 -365.521 255 242 255
42 364 -371.313 255 244 255
43 364 -375.495 213 195 211
44 364 -375.594 164 147 163
45 364 -381.26 126 109 125
212 364 -386.963 27 31 30
213 364 -388.021 34 40 38
214 364 -389.49 41 46 42
215 364 -389.465 45 47 44
216 364 -389.289 49 50 45
217 364 -386.66 43 42 38
220 364 -385.514 45 39 39
221 364 -386.645 40 36 37
222 364 -386.778 32 27 31
32 363 -359.322 255 244 254
33 363 -358 254 246 255
34 363 -358.373 255 243 253
35 363 -357.777 255 244 254
36 363 -358.041 255 242 255
37 363 -358.301 255 241 254
38 363 -358.201 255 239 252
39 363 -359.99 255 239 255
40 363 -365.142 255 238 255
41 363 -367.832 212 191 210
42 363 -370.709 169 150 169
43 363 -371.799 127 110 128
44 363 -365.809 95 81 98
46 363 -344.123 84 67 86
219 363 -378.682 34 29 26
220 363 -381.493 52 46 46
221 363 -381.975 46 40 40
222 363 -382.551 34 30 31
32 362 -352.075 255 243 253
33 362 -352.132 255 243 253
34 362 -352.211 255 242 255
35 362 -351.787 255 240 255
36 362 -352.135 255 236 251
37 362 -352.33 255 240 255
38 362 -353.264 255 237 255
39 362 -358.689 252 229 249
40 362 -365.689 211 188 208
41 362 -363.163 135 111 133
42 362 -360.597 94 75 95
43 362 -350.525 80 66 83
44 362 -348.272 79 66 86
46 362 -350.385 80 67 84
47 362 -353.071 74 71 82
48 362 -355.331 74 69 76
220 362 -377.537 30 24 24
30 361 -346.262 255 242 255
31 361 -345.808 255 243 255
32 361 -346 255 245 254
33 361 -345.867 255 243 255
34 361 -346.384 255 244 255
35 361 -347.457 255 241 255
36 361 -348.522 251 230 245
37 361 -351.226 239 216 234
38 361 -356.34 208 185 205
39 361 -360.268 169 144 166
40 361 -352.618 115 91 113
41 361 -341.906 105 92 110
42 361 -340.593 94 86 101
43 361 -346.758 86 73 93
44 361 -339.353 82 78 95
45 361 -351.641 81 79 93
46 361 -348.955 68 68 80
47 361 -352.975 67 67 79
48 361 -354.617 68 65 76
52 361 -338.948 49 52 67
27 360 -339.213 255 242 252
28 360 -339.394 255 243 253
29 360 -340 255 244 255
30 360 -340.127 255 242 253
31 360 -340.04 255 241 254
32 360 -339.918 255 242 255
33 360 -341.372 255 243 255
34 360 -351.129 254 238 251
35 360 -355.132 244 226 240
36 360 -348.163 151 130 147
37 360 -357.138 130 107 125
38 360 -350.769 110 87 107
39 360 -347.107 97 73 95
40 360 -341.332 92 70 93
41 360 -342.035 95 77 101
42 360 -346.468 89 75 98
43 360 -344.114 83 74 95
44 360 -338.256 76 75 91
45 360 -344.845 71 73 88
46 360 -343.82 60 66 78
47 360 -342.424 57 61 73
26 359 -332.812 255 243 253
27 359 -334.36 255 250 255
28 359 -333.875 255 241 252
29 359 -334.251 255 243 254
30 359 -334.096 255 241 253
31 359 -336.023 255 244 255
32 359 -336.912 253 236 252
33 359 -344.807 240 223 239
34 359 -348.842 214 197 213
35 359 -336.263 148 131 147
36 359 -331.614 138 117 136
37 359 -341.548 137 119 135
38 359 -343.061 127 108 127
39 359 -342.65 119 101 123
40 359 -342.626 99 84 107
41 359 -340.32 93 81 103
42 359 -342.232 83 75 96
43 359 -341.451 79 74 94
44 359 -334.701 68 67 85
45 359 -338.025 63 66 81
46 359 -336.199 54 62 75
25 358 -328.599 255 246 255
26 358 -327.486 255 243 254
27 358 -327.888 255 243 254
28 358 -328.411 255 243 255
29 358 -328.452 255 244 255
30 358 -331.72 255 238 252
31 358 -339.983 248 230 246
32 358 -340.13 206 187 206
33 358 -334.537 153 134 154
34 358 -331.728 143 129 146
35 358 -327.508 125 111 136
36 358 -331.232 128 116 130
37 358 -333.821 129 116 133
38 358 -336.144 116 105 122
39 358 -335.701 104 95 114
40 358 -334.373 93 88 108
41 358 -332.33 81 78 99
42 358 -332.992 73 71 92
43 358 -333.598 71 72 92
44 358 -331.642 60 61 81
45 358 -333.241 56 59 76
46 358 -329.864 51 57 71
24 357 -322.689 255 245 255
25 357 -321.743 255 243 253
26 357 -322.335 255 246 255
27 357 -324.076 255 243 255
28 357 -325.573 255 240 255
29 357 -326.345 233 216 232
30 357 -332.397 223 206 222
31 357 -330.678 190 171 190
32 357 -321.692 151 132 154
33 357 -323.468 150 132 154
34 357 -323.767 139 126 144
35 357 -323.237 125 117 132
36 357 -326.486 121 113 128
37 357 -331.265 116 110 124
38 357 -330.12 97 93 108
39 357 -327.518 91 88 105
40 357 -326.79 79 80 98
41 357 -326.5 67 72 92
42 357 -324.744 61 66 86
43 357 -324.17 62 64 85
44 357 -326.094 53 54 75
45 357 -326.83 50 53 72
22 356 -317.414 255 244 255
23 356 -316 255 243 254
24 356 -315.762 255 244 255
25 356 -315.77 255 241 254
26 356 -318.599 255 243 255
27 356 -326.446 251 237 252
28 356 -331.057 230 216 233
29 356 -321.259 172 158 175
30 356 -317.11 153 138 157
31 356 -314.412 150 132 156
32 356 -315.169 142 128 151
33 356 -317.728 141 127 152
34 356 -319.291 132 123 144
35 356 -318.638 120 116 133
36 356 -322.225 118 114 129
37 356 -322.811 104 102 116
38 356 -319.466 93 92 106
39 356 -318.346 77 80 97
40 356 -320.414 68 75 93
41 356 -325.012 62 70 89
42 356 -320.216 52 60 81
43 356 -317.02 49 54 76
21 355 -309.84 255 243 253
22 355 -310.162 255 242 255
23 355 -310.178 255 245 255
24 355 -310.195 255 243 255
25 355 -315.041 249 233 246
26 355 -319.86 226 212 227
27 355 -321.296 201 187 204
28 355 -312.947 167 152 171
29 355 -309.658 158 142 168
30 355 -313.005 160 147 167
31 355 -314.032 152 138 163
32 355 -314.387 146 131 160
33 355 -313.671 129 119 146
34 355 -314.654 123 120 141
35 355 -315.063 113 114 132
36 355 -316.634 107 109 124
37 355 -313.052 90 92 105
38 355 -312.972 81 84 99
39 355 -314.207 71 78 94
40 355 -312.472 60 72 88
41 355 -319.818 54 67 86
20 354 -304 255 243 253
21 354 -303.632 255 246 255
22 354 -303.757 255 243 254
23 354 -303.827 255 239 250
24 354 -307.814 244 228 241
25 354 -312.434 214 198 211
26 354 -310.435 175 161 176
27 354 -306.31 164 150 167
28 354 -305.377 153 140 160
29 354 -308.93 156 142 165
30 354 -306.846 148 134 159
31 354 -307.821 143 130 156
32 354 -309.642 130 121 150
33 354 -306.901 114 111 138
34 354 -308.377 109 111 132
35 354 -309.521 98 103 122
36 354 -306.928 83 89 103
37 354 -309.249 82 85 100
38 354 -312.715 73 79 95
39 354 -312.704 66 73 91
40 354 -309.661 55 66 84
41 354 -313.893 46 59 78
45 354 -310.85 40 42 67
18 353 -297.776 255 245 253
19 353 -297.388 255 245 255
20 353 -297.8 255 243 254
21 353 -298.412 255 245 255
22 353 -304.212 255 243 253
23 353 -304.664 241 227 240
24 353 -304.694 203 189 204
25 353 -306.45 177 163 180
26 353 -300.715 164 151 169
27 353 -301.867 162 150 170
28 353 -304.022 154 145 166
29 353 -302.004 147 137 161
30 353 -303.521 136 126 150
31 353 -302.38 127 119 143
32 353 -302.987 111 108 137
33 353 -301.62 96 97 125
34 353 -302.933 87 93 115
35 353 -300.765 77 86 103
36 353 -302.11 76 84 97
37 353 -303.32 69 77 90
38 353 -304.353 66 74 87
39 353 -309.219 59 66 82
40 353 -307.506 51 62 80
42 353 -301.965 36 46 71
43 353 -305.019 37 44 70
18 352 -291.725 255 245 254
19 352 -291.779 255 243 255
20 352 -292.416 255 241 253
21 352 -299.988 255 244 255
22 352 -306.428 243 231 241
23 352 -300.386 190 179 193
24 352 -295.575 168 155 173
25 352 -293.904 160 148 170
26 352 -295.957 157 148 169
27 352 -297.527 150 142 163
28 352 -298.155 141 136 158
29 352 -296.865 131 128 149
30 352 -294.133 120 115 135
31 352 -297.558 116 112 135
32 352 -296.385 94 95 123
33 352 -297.578 83 89 115
34 352 -297.744 73 84 104
35 352 -296.061 68 80 94
36 352 -298.203 69 82 91
37 352 -296.451 62 75 84
38 352 -296.911 57 67 77
39 352 -298.158 50 59 74
41 352 -297.09 42 50 73
42 352 -298.792 38 48 73
17 351 -288.193 111 109 110
18 351 -285.599 255 245 255
19 351 -289.755 255 239 255
20 351 -297.119 254 234 246
21 351 -300.194 224 208 219
22 351 -298.846 190 180 191
23 351 -287.377 162 154 169
24 351 -287.211 156 147 168
25 351 -288.157 150 142 165
26 351 -290.281 145 140 162
27 351 -289.484 135 131 154
28 351 -291.369 126 127 148
29 351 -292.324 121 122 143
30 351 -289.351 110 111 129
31 351 -289.801 101 104 123
32 351 -289.519 86 92 118
33 351 -291.583 79 89 114
34 351 -293.505 75 88 107
35 351 -291.481 66 82 95
36 351 -294.691 63 80 88
37 351 -292.373 54 69 76
38 351 -290.601 47 60 69
42 351 -292.432 34 44 69
17 350 -276.66 118 109 114
18 350 -281.049 255 243 255
19 350 -292.542 255 239 255
20 350 -297.324 226 205 220
21 350 -282.8 179 163 176
22 350 -276.506 164 149 170
23 350 -283.119 154 148 162
24 350 -281.173 147 142 162
25 350 -283.143 141 138 159
26 350 -284.156 133 131 153
27 350 -282.075 121 123 144
28 350 -283.534 111 117 139
29 350 -286.667 106 112 134
30 350 -283.753 95 102 120
31 350 -282.647 87 94 113
32 350 -283.162 79 89 114
33 350 -285.572 72 87 110
34 350 -286.709 66 83 101
35 350 -283.451 57 75 89
36 350 -284.094 51 69 79
17 349 -284.271 117 111 115
18 349 -284.442 253 236 252
19 349 -287.955 221 199 220
20 349 -278.343 174 156 172
21 349 -268.708 165 151 174
22 349 -273.449 153 141 163
23 349 -275.72 143 139 153
24 349 -276.574 141 138 157
25 349 -277.632 130 131 151
26 349 -277.877 121 123 144
27 349 -276.199 111 117 139
28 349 -277.569 100 111 133
29 349 -279.963 90 102 124
30 349 -278.337 83 94 112
31 349 -278.998 78 91 110
32 349 -279.963 73 88 111
33 349 -282.226 64 80 103
34 349 -281.809 55 74 91
35 349 -275.738 45 64 78
36 349 -276.456 42 62 73
40 349 -279.55 39 46 64
17 348 -279.956 115 108 115
18 348 -279.219 217 203 220
19 348 -273.052 174 155 177
20 348 -264.272 157 144 170
21 348 -270.489 159 147 161
22 348 -272.107 150 144 158
23 348 -272.16 140 138 152
24 348 -271.877 129 130 150
25 348 -272.361 122 124 145
26 348 -272.839 111 117 139
27 348 -271.6 100 111 131
28 348 -273.192 90 102 124
29 348 -273.939 79 94 115
30 348 -274.423 75 90 111
31 348 -275.727 71 88 108
32 348 -274.737 63 81 101
33 348 -276.565 53 74 93
34 348 -276.293 48 69 86
35 348 -271.261 41 63 77
36 348 -272.645 42 61 75
37 348 -271.422 36 54 66
38 348 -276.303 38 50 64
39 348 -278.313 39 48 63
80 348 -196.915 31 29 30
81 348 -194.69 34 30 31
82 348 -193.413 38 34 35
83 348 -193.765 42 36 38
84 348 -194.071 39 33 35
85 348 -194.332 32 26 28
107 348 -193.537 30 26 27
108 348 -193.678 35 31 30
109 348 -192.565 36 32 31
110 348 -192.351 37 33 30
111 348 -193.611 39 35 32
112 348 -194.18 43 35 33
113 348 -193.376 44 36 34
114 348 -193.187 44 36 34
115 348 -192.819 43 37 37
116 348 -193.566 42 36 36
117 348 -194.467 38 34 33
118 348 -194.73 34 30 29
120 348 -195.64 30 29 25
121 348 -194.046 30 29 25
122 348 -193.228 34 33 29
123 348 -193.418 38 37 32
124 348 -193 35 34 29
17 347 -268.006 93 88 94
18 347 -265.922 178 167 184
19 347 -260.233 155 145 170
20 347 -263.414 155 142 159
21 347 -267.223 150 142 155
22 347 -264.472 136 132 146
23 347 -267.643 133 132 146
24 347 -266.776 120 123 142
25 347 -268.134 116 121 141
26 347 -267.826 104 112 133
27 347 -266.601 90 102 124
28 347 -267.418 78 93 116
29 347 -267.895 70 86 109
30 347 -267.693 67 84 104
31 347 -266.22 59 76 96
32 347 -265.903 52 70 90
33 347 -264.955 44 65 84
34 347 -262.961 39 62 78
35 347 -260.859 45 51 73
36 347 -264.92 37 56 71
39 347 -272.624 36 45 60
73 347 -193.039 32 31 27
77 347 -190.826 34 33 29
78 347 -191.933 35 34 30
79 347 -191.186 38 34 31
80 347 -189.871 35 31 30
81 347 -189.424 36 30 30
82 347 -189.891 39 33 33
83 347 -190.287 42 36 36
84 347 -191.691 39 33 33
85 347 -190.728 36 30 30
86 347 -189.812 34 28 28
87 347 -189.393 32 26 28
88 347 -189.222 34 28 30
89 347 -188.63 31 25 27
91 347 -190.965 33 27 29
92 347 -189.904 35 29 31
93 347 -187.761 31 26 30
94 347 -188.073 29 24 28
107 347 -189.858 29 25 26
108 347 -189.424 31 27 26
112 347 -192.858 38 30 27
113 347 -193.294 38 28 26
114 347 -195.406 36 26 24
115 347 -197.632 35 27 25
116 347 -199.194 37 29 27
117 347 -200.698 36 31 28
118 347 -198.859 35 30 27
119 347 -195.831 35 30 26
120 347 -195.824 35 32 27
121 347 -194.748 33 30 23
122 347 -194.961 34 31 24
123 347 -194.961 35 32 27
124 347 -197.632 33 30 25
125 347 -196.416 32 29 24
126 347 -192.022 32 28 25
127 347 -188.283 33 29 26
128 347 -189.522 30 26 25
129 347 -190.287 31 27 26
17 346 -261.954 82 81 87
18 346 -259.823 166 159 177
19 346 -258.843 152 144 165
20 346 -258.274 144 137 153
21 346 -259.929 138 134 148
22 346 -258.92 128 127 141
23 346 -259.65 114 117 132
24 346 -260.83 109 114 133
25 346 -262.876 105 112 131
26 346 -261.518 92 100 121
27 346 -258.765 79 91 113
28 346 -259.216 69 84 107
29 346 -261.625 64 78 104
30 346 -259.132 59 74 97
31 346 -255.582 57 62 81
32 346 -260.025 44 62 82
35 346 -250.288 41 47 69
39 346 -268.5 32 39 55
66 346 -188.448 35 34 32
67 346 -186.547 42 38 37
68 346 -184.607 42 38 37
69 346 -182.988 41 37 34
70 346 -183.062 39 35 32
72 346 -184.877 38 34 31
73 346 -187.401 37 33 30
74 346 -188.283 34 30 27
75 346 -188.283 33 30 25
76 346 -188.645 35 32 27
77 346 -188.961 37 34 29
78 346 -188.325 39 36 31
79 346 -187.027 42 37 34
80 346 -182.498 42 34 32
81 346 -184.126 39 30 31
82 346 -184.771 40 31 32
83 346 -184.98 41 31 32
84 346 -185.485 40 30 31
85 346 -185.05 42 32 33
86 346 -182.588 44 34 35
87 346 -181 42 33 34
88 346 -181.87 39 30 31
89 346 -181 38 29 30
90 346 -181.445 38 29 30
91 346 -183.193 39 30 33
92 346 -182.904 40 31 34
93 346 -181 36 30 32
94 346 -181 32 26 28
112 346 -192.366 37 28 23
113 346 -194.752 39 28 24
114 346 -197.147 39 28 26
115 346 -199.407 40 30 29
116 346 -200.657 42 32 31
117 346 -201.411 42 32 31
118 346 -200.55 40 30 29
119 346 -197.287 37 29 26
120 346 -199.089 39 32 26
121 346 -198.857 37 30 24
122 346 -197.445 39 32 26
123 346 -197.752 40 33 27
124 346 -199.763 39 30 25
125 346 -199.124 39 29 27
126 346 -194.361 41 31 30
127 346 -191.491 39 29 28
128 346 -187.829 39 31 29
129 346 -186.45 39 31 29
130 346 -186.515 38 30 27
131 346 -186.791 37 30 24
132 346 -186.16 33 28 22
133 346 -184.331 33 28 22
134 346 -182.102 31 28 21
135 346 -184.119 30 27 22
18 345 -253.527 148 145 162
19 345 -256.296 142 139 158
20 345 -255.304 134 132 146
21 345 -255.462 124 123 137
22 345 -257.791 117 119 132
23 345 -254.731 104 110 124
24 345 -254.506 96 103 121
25 345 -254.255 87 95 114
26 345 -251.32 73 84 104
27 345 -250 77 74 101
28 345 -251.91 66 78 102
29 345 -254.294 58 73 96
30 345 -253.422 56 68 92
31 345 -250 53 60 76
32 345 -253.376 39 56 74
66 345 -184.338 39 35 32
67 345 -183.133 43 38 35
68 345 -182.769 41 36 33
69 345 -181.373 41 36 32
70 345 -180.926 42 37 33
71 345 -182.353 40 35 31
72 345 -184.99 42 37 33
73 345 -187.986 39 36 29
74 345 -189.846 36 33 26
75 345 -191.083 35 32 25
76 345 -190.775 37 34 27
77 345 -191.55 39 34 28
78 345 -190.01 40 35 29
79 345 -187.5 44 36 33
80 345 -186.72 46 36 34
81 345 -188.778 43 33 31
82 345 -186.222 43 33 31
83 345 -183.696 43 33 31
84 345 -185.235 41 31 29
85 345 -185.744 42 32 30
86 345 -184.542 43 33 31
87 345 -184.926 41 29 29
88 345 -186.639 41 29 29
89 345 -183.543 44 32 32
90 345 -183.284 45 33 33
91 345 -184.855 43 33 34
92 345 -185.497 41 31 32
93 345 -183.973 39 30 31
94 345 -186.516 33 27 27
111 345 -197.741 34 27 19
112 345 -195.03 40 31 24
113 345 -195.682 40 29 23
114 345 -195.929 40 29 25
115 345 -196.4 40 29 27
116 345 -197.256 42 31 29
117 345 -199.322 42 31 29
118 345 -198.859 42 31 29
119 345 -197.855 41 30 26
120 345 -196.803 44 33 27
121 345 -195.67 43 32 26
122 345 -193.801 44 33 27
123 345 -194.344 44 33 27
124 345 -196.097 44 31 25
125 345 -195.36 45 31 28
126 345 -193.115 48 32 32
127 345 -192.392 45 31 31
128 345 -190.469 44 30 30
129 345 -189.717 42 31 29
130 345 -189.163 41 30 26
131 345 -189.064 39 28 24
132 345 -189.653 37 28 21
133 345 -187.002 37 28 21
134 345 -185.018 36 29 21
135 345 -184.16 35 28 22
136 345 -180.946 33 28 24
17 344 -250.373 75 74 80
18 344 -247.799 141 138 155
19 344 -249.437 131 130 148
20 344 -246.442 122 121 137
21 344 -250.305 116 118 133
22 344 -248.274 106 109 124
23 344 -245.6 94 100 116
24 344 -246.188 85 94 111
25 344 -244.502 77 88 106
26 344 -245.437 70 83 100
27 344 -249.889 71 84 103
28 344 -250.427 67 79 103
29 344 -249.556 57 69 93
30 344 -248.539 50 62 86
31 344 -245.897 45 57 79
32 344 -255.168 44 60 76
33 344 -247.983 35 51 67
53 344 -170.368 42 38 39
54 344 -169.761 41 35 37
57 344 -176.21 39 33 33
58 344 -174.791 38 33 30
60 344 -175.985 35 34 29
61 344 -177.741 35 36 30
63 344 -178.69 35 38 31
65 344 -184.878 34 33 29
66 344 -183.376 39 35 32
67 344 -181.213 42 37 33
68 344 -179.906 44 36 33
69 344 -180.001 46 36 34
70 344 -180.001 46 36 34
71 344 -182.21 44 37 31
72 344 -186.486 40 33 27
73 344 -187.763 40 35 29
74 344 -187.037 40 35 29
75 344 -190.877 39 34 28
76 344 -193.33 41 36 30
77 344 -192.298 44 37 31
78 344 -192.972 44 37 31
79 344 -192.972 45 36 31
80 344 -193.79 47 36 32
81 344 -192.134 47 36 34
82 344 -187.964 46 35 33
83 344 -187.33 42 31 29
84 344 -189.955 41 30 28
85 344 -190.979 43 32 30
86 344 -191.852 44 33 31
87 344 -194.196 37 36 34
88 344 -193.621 47 33 32
89 344 -188.91 46 32 32
90 344 -183.895 47 33 33
91 344 -182.949 48 34 34
92 344 -184.09 43 33 32
93 344 -186.857 37 28 29
94 344 -192.16 33 27 27
95 344 -194.486 31 30 28
96 344 -199.939 31 29 30
111 344 -200.11 32 28 29
113 344 -194.537 33 24 25
114 344 -193.483 38 27 23
115 344 -191.547 40 29 27
116 344 -191.658 44 30 29
117 344 -194.221 44 27 33
118 344 -194 46 30 30
119 344 -193.082 46 31 28
120 344 -188.978 47 34 28
121 344 -189.043 47 34 26
122 344 -188.41 49 34 27
123 344 -188.209 50 35 28
124 344 -188.597 51 33 29
125 344 -190.065 50 30 29
126 344 -188.678 52 30 32
127 344 -187.224 53 31 33
128 344 -183.251 52 33 35
129 344 -184.816 48 29 31
130 344 -187.527 45 27 27
131 344 -189.628 42 27 24
132 344 -189.349 42 29 23
133 344 -187.858 43 30 24
134 344 -186.143 40 29 23
135 344 -182.099 40 29 25
136 344 -180.888 38 28 26
