ply
format ascii 1.0
element vertex 1756
property float x
property float y
property float z
property uchar red
property uchar green
property uchar blue
end_header
241 350 -301.087 210 177 158
245 350 -298.915 172 150 127
247 350 -296.259 135 117 95
317 350 -212.101 137 115 91
318 350 -222.617 145 125 100
319 350 -237.082 149 127 103
32 349 -292.546 220 198 177
95 349 -229.716 224 183 165
226 349 -208.454 158 136 113
236 349 -185.582 103 88 57
237 349 -194.046 130 113 85
238 349 -217.072 174 153 126
239 349 -233.078 219 188 167
241 349 -295.618 202 171 151
244 349 -289.963 167 143 119
245 349 -294.326 174 154 129
317 349 -203.691 126 104 80
318 349 -216.463 139 119 94
319 349 -226.17 148 126 102
32 348 -289.371 218 195 177
94 348 -208.714 204 169 147
236 348 -186.413 101 84 58
237 348 -193.592 142 121 94
238 348 -211.685 180 154 129
239 348 -230.021 219 188 167
244 348 -282.163 165 141 115
245 348 -287.927 174 152 128
317 348 -197.35 121 100 73
318 348 -209.665 135 115 88
319 348 -213.3 148 128 101
360 348 -261.741 90 77 61
236 347 -184.847 106 86 61
237 347 -190.185 153 131 107
238 347 -208.369 179 153 128
239 347 -230.393 220 192 170
244 347 -277.595 163 139 111
245 347 -282.996 166 146 121
317 347 -193.432 120 101 71
318 347 -201.542 131 114 84
319 347 -202.194 145 128 98
359 347 -265.119 101 96 74
360 347 -257.932 95 79 63
236 346 -183.974 116 94 73
237 346 -185.728 172 147 125
238 346 -202.938 181 153 129
239 346 -236.899 215 184 164
244 346 -271.055 158 135 104
245 346 -273.832 153 133 106
317 346 -191.438 117 98 68
318 346 -194.84 129 112 82
319 346 -193.945 144 125 95
359 346 -266.432 113 109 84
93 345 -197.129 234 198 176
236 345 -179.632 121 99 78
237 345 -179.828 187 160 139
238 345 -195.128 186 158 134
239 345 -242.127 212 181 163
244 345 -261.007 151 130 99
245 345 -262.106 141 121 94
317 345 -186.963 113 94 64
318 345 -188.687 126 110 77
319 345 -188.846 140 124 91
359 345 -263.897 121 119 94
92 344 -193.004 209 172 153
218 344 -188.41 165 135 111
219 344 -182.964 186 156 130
236 344 -177.034 130 105 85
237 344 -176.708 196 168 147
238 344 -186.974 196 165 144
239 344 -244.611 208 179 163
244 344 -259.882 149 128 99
245 344 -255.656 139 119 92
318 344 -180.201 123 107 74
319 344 -182.528 140 121 89
359 344 -259.354 125 124 96
360 344 -254.535 85 85 57
216 343 -169.039 140 110 86
217 343 -176.33 157 127 103
218 343 -191.867 174 137 119
236 343 -173.277 142 117 97
237 343 -174.482 194 166 145
238 343 -188.202 186 154 139
239 343 -246.042 211 184 165
244 343 -252.706 146 127 97
245 343 -248.093 137 120 94
318 343 -172.374 123 107 73
319 343 -171.637 140 124 90
320 343 -187.19 137 118 86
359 343 -247.926 112 111 81
33 342 -226.292 161 136 116
216 342 -167.148 153 121 98
217 342 -171.119 169 137 114
218 342 -193.516 188 151 135
236 342 -165.909 161 134 115
237 342 -171.188 203 175 154
238 342 -190.469 193 161 146
239 342 -243.508 213 186 167
244 342 -245.72 144 124 97
245 342 -241.454 137 120 94
318 342 -162.791 125 109 75
319 342 -161.758 146 127 94
320 342 -177.95 139 118 87
357 342 -242.618 120 117 84
359 342 -230.94 99 87 65
216 341 -170.678 158 126 103
217 341 -171.291 177 145 122
236 341 -159.837 166 139 120
237 341 -167.326 206 178 157
238 341 -187.735 195 163 148
239 341 -240.633 207 181 158
318 341 -156.09 123 107 73
319 341 -155 146 127 94
320 341 -168.698 140 119 88
357 341 -243.2 125 122 87
216 340 -164.883 167 136 115
235 340 -136.354 87 62 40
236 340 -155.535 166 138 117
237 340 -164.419 202 171 151
238 340 -183.73 194 165 147
318 340 -150.403 119 100 67
319 340 -148.756 140 121 88
320 340 -158.45 143 122 91
321 340 -172.522 142 122 97
357 340 -239.783 125 122 87
362 340 -226.786 79 77 54
363 340 -226.265 73 71 50
33 339 -175.963 152 127 107
94 339 -226.5 220 189 168
216 339 -154.191 182 151 130
235 339 -135.36 105 81 57
236 339 -151.5 172 144 122
237 339 -161.694 197 166 145
238 339 -184.402 193 166 147
319 339 -142.437 133 114 81
320 339 -151.697 145 124 93
321 339 -166.378 144 124 99
357 339 -231.608 118 118 80
362 339 -220.914 83 81 58
363 339 -224.318 79 77 56
33 338 -167.957 156 131 111
34 338 -179.683 107 89 69
95 338 -149.665 187 155 132
234 338 -130.219 79 61 37
235 338 -132.376 123 99 75
236 338 -149.468 175 147 125
237 338 -160.181 195 168 151
239 338 -231.576 196 169 140
319 338 -138.457 128 109 76
320 338 -143.301 146 125 94
321 338 -159.042 143 123 98
362 338 -212.691 85 83 60
363 338 -218.395 80 78 57
34 337 -171.769 105 87 65
93 337 -222.803 229 201 177
95 337 -139.992 196 166 140
234 337 -126.835 91 73 49
235 337 -128.06 137 113 89
236 337 -145.639 174 146 124
237 337 -157.359 198 171 152
319 337 -132.264 124 105 73
320 337 -134.722 145 124 95
321 337 -152.166 142 122 95
362 337 -203.548 86 84 61
363 337 -210.267 79 77 56
93 336 -231.111 213 185 163
95 336 -137.494 203 173 145
234 336 -123.508 107 89 65
235 336 -123.48 152 127 105
236 336 -135.979 179 151 130
237 336 -154.347 198 171 150
319 336 -127.217 118 101 73
320 336 -127.391 138 117 90
321 336 -139.349 143 119 93
322 336 -138.918 148 124 96
88 335 -126.201 203 168 138
93 335 -93.1621 197 169 147
94 335 -124.893 196 170 143
222 335 -204.924 147 130 100
234 335 -120.586 129 111 87
235 335 -120.281 175 150 128
236 335 -131.889 179 151 130
237 335 -152.174 198 170 148
241 335 -194.539 163 139 115
320 335 -122.266 132 111 84
321 335 -127.27 145 121 95
322 335 -130.615 147 123 95
360 335 -222.961 92 92 64
86 334 -174.794 150 115 95
88 334 -125.697 218 183 155
212 334 -130.017 178 146 123
234 334 -118.164 151 130 109
235 334 -118.283 192 165 146
236 334 -130.916 177 149 128
237 334 -158.22 199 168 147
241 334 -189.932 159 137 113
242 334 -191.74 144 127 99
320 334 -112.614 131 109 85
321 334 -115.959 151 127 103
322 334 -120.69 148 124 98
359 334 -171.918 120 110 85
32 333 -162.506 221 196 176
211 333 -107.725 186 156 128
234 333 -114.815 156 134 113
235 333 -116.53 189 162 143
236 333 -128.656 180 145 126
241 333 -184.489 156 136 111
242 333 -181.949 139 124 95
320 333 -105.861 127 105 82
321 333 -108.946 149 125 101
322 333 -112.896 151 127 103
359 333 -166.877 122 110 84
211 332 -113.425 192 162 134
234 332 -109.5 159 134 114
235 332 -112.901 184 155 137
241 332 -180.943 153 133 108
242 332 -176.7 134 119 90
320 332 -103.601 119 97 76
321 332 -104.727 140 115 93
322 332 -108.267 155 131 107
359 332 -163.338 121 107 81
362 332 -182.003 83 83 59
84 331 -170.291 157 122 100
91 331 -181.853 237 207 183
93 331 -101.21 203 176 147
210 331 -99.3895 192 162 136
233 331 -98.5597 92 74 52
234 331 -104.287 162 135 116
235 331 -109.306 180 151 133
237 331 -179.843 191 163 141
241 331 -178.813 149 132 106
242 331 -176.535 130 116 87
320 331 -98.886 120 98 77
321 331 -99.9083 140 115 95
322 331 -103.011 157 132 110
361 331 -180.537 100 100 74
362 331 -175.7 85 85 61
368 331 -172.373 43 41 29
86 330 -100.494 204 167 148
91 330 -172.099 234 206 182
233 330 -92.8569 110 88 67
234 330 -100.654 164 137 118
235 330 -107.818 178 147 127
237 330 -174.509 188 161 140
241 330 -172.965 147 130 102
320 330 -92.0817 121 100 79
321 330 -91.9358 143 121 100
322 330 -96.7637 153 131 108
359 330 -154.357 121 107 80
360 330 -167.196 105 104 76
361 330 -174.837 114 112 87
362 330 -168.201 91 89 66
86 329 -102.27 226 189 170
91 329 -167.207 230 202 178
232 329 -83.0637 90 72 50
233 329 -85.1966 136 111 89
234 329 -94.5813 173 145 124
235 329 -105.033 181 149 124
237 329 -169.022 186 159 138
240 329 -166.998 156 134 110
241 329 -166.361 146 129 101
320 329 -87.3028 116 95 74
321 329 -82.4751 143 121 100
322 329 -91.1525 149 127 104
323 329 -107.547 160 136 110
359 329 -143.568 130 114 88
361 329 -171.568 116 115 87
362 329 -166.38 91 89 64
232 328 -80.74 109 87 64
233 328 -80.8581 152 124 102
234 328 -88.5993 176 144 123
235 328 -100.29 180 150 122
237 328 -163.584 182 155 136
240 328 -156.324 154 132 108
241 328 -156.144 141 121 96
320 328 -76.9913 119 98 77
321 328 -79.2588 139 117 96
322 328 -81.7195 148 123 101
323 328 -104.152 169 145 121
359 328 -138.648 139 123 98
360 328 -151.376 100 94 68
361 328 -164.247 105 99 75
362 328 -162.985 87 81 59
205 327 -80.3985 174 142 121
206 327 -86.9099 193 161 138
232 327 -80.5018 122 96 73
233 327 -78.7222 162 132 108
234 327 -83.0778 178 143 121
320 327 -68.3045 120 99 78
321 327 -69.2137 144 122 99
322 327 -74.7729 147 122 100
323 327 -97.0901 168 141 120
358 327 -146.957 116 109 80
359 327 -134.039 134 118 93
360 327 -141.2 99 81 61
361 327 -151.561 89 83 59
362 327 -149.136 73 67 45
232 326 -75.9006 127 99 77
233 326 -74.5596 170 135 113
234 326 -78.184 178 143 121
320 326 -63.7445 118 98 74
321 326 -62.9401 147 125 101
322 326 -68.6146 147 123 99
323 326 -89.9029 165 138 117
357 326 -145.118 123 111 85
359 326 -125.168 118 101 81
360 326 -136.445 85 77 54
361 326 -139.923 73 65 44
362 326 -135.74 60 40 31
33 325 -149.769 118 107 77
83 325 -59.7686 185 150 128
231 325 -60.4054 101 77 53
232 325 -69.4847 137 105 82
233 325 -69.5306 175 139 117
234 325 -71.3086 181 145 121
321 325 -57.0623 141 120 93
322 325 -61.8987 149 125 99
323 325 -82.6012 161 134 113
324 325 -77.0773 158 132 109
357 325 -130.431 115 105 80
358 325 -132.64 95 88 62
359 325 -132.241 88 80 57
360 325 -137.471 75 67 46
361 325 -136.584 58 50 31
230 324 -51.0347 88 72 49
231 324 -56.0025 119 92 71
232 324 -64.991 146 111 91
233 324 -65.8125 174 136 115
234 324 -67.2908 178 140 119
321 324 -50.3834 131 110 83
322 324 -56.2586 151 127 101
323 324 -75.3594 156 129 110
324 324 -72.1522 157 131 106
357 324 -131.266 113 101 79
359 324 -134.72 72 64 45
360 324 -135.157 53 46 28
31 323 -29.811 231 209 186
33 323 -128.677 107 100 71
230 323 -47.3571 96 78 56
231 323 -51.1737 124 98 75
232 323 -54.5096 150 114 92
233 323 -59.4709 171 130 110
321 323 -47.4321 124 103 74
322 323 -51.756 149 125 97
323 323 -67.774 152 128 100
324 323 -64.2715 159 133 108
356 323 -129.28 104 92 68
357 323 -130.402 102 91 71
358 323 -127.531 68 60 41
359 323 -132.965 51 44 26
33 322 -118.373 101 94 65
83 322 -66.799 216 176 150
84 322 -50.5803 254 221 202
230 322 -46.0275 102 84 62
231 322 -46.6382 126 98 77
232 322 -46.1268 156 118 99
233 322 -54.6629 172 129 110
321 322 -42.7908 121 100 69
322 322 -45.3745 142 119 88
323 322 -59.6089 150 126 98
324 322 -54.7618 164 138 113
325 322 -57.0304 167 141 118
353 322 -115.422 145 128 100
354 322 -113.859 114 98 72
355 322 -109.542 118 103 82
356 322 -118.878 98 86 64
357 322 -122.512 84 73 55
358 322 -119.74 49 40 23
84 321 -48.1877 255 237 218
230 321 -43.6863 113 92 71
231 321 -40.7967 134 106 84
232 321 -41.7248 160 124 102
233 321 -51.4024 172 131 111
321 321 -35.3615 121 100 69
322 321 -37.5522 137 114 83
323 321 -50.1343 151 126 96
324 321 -45.4406 170 144 117
325 321 -50.9099 167 141 116
352 321 -115.948 145 130 101
353 321 -119.56 154 138 112
354 321 -115.377 116 104 78
355 321 -109.881 108 97 75
356 321 -115.471 80 69 49
357 321 -122.139 55 46 29
230 320 -38.0512 125 100 80
231 320 -37.7668 147 116 96
232 320 -39.2058 164 129 109
322 320 -31.3293 134 109 79
323 320 -37.7259 158 131 102
324 320 -42.2945 169 142 115
325 320 -51.7752 171 141 117
352 320 -112.082 126 112 83
353 320 -114.109 126 114 88
354 320 -106.729 89 82 56
355 320 -101.794 70 64 42
356 320 -111.98 52 45 29
83 319 -25.746 255 222 203
229 319 -27.5971 93 70 52
230 319 -34.9222 127 100 79
231 319 -32.9303 151 120 99
232 319 -33.4303 162 130 109
322 319 -26.0817 136 111 81
323 319 -29.2593 160 133 106
324 319 -37.1709 163 136 109
325 319 -50.3242 172 142 116
352 319 -102.853 100 89 61
353 319 -102.977 88 78 53
354 319 -96.6208 55 49 27
355 319 -98.3615 42 37 18
31 318 -120.961 215 193 172
32 318 -63.7516 175 155 120
228 318 -18.3044 82 64 44
229 318 -24.7159 106 81 61
230 318 -32.1112 128 100 79
231 318 -29.1778 153 122 101
232 318 -32.9098 159 127 106
322 318 -22.3066 139 113 86
323 318 -22.3154 162 134 110
324 318 -31.7457 157 129 105
350 318 -97.2936 116 102 73
351 318 -96.7499 109 95 68
352 318 -99.7873 86 74 48
353 318 -92.3159 59 51 28
228 317 -21.3261 93 72 51
229 317 -24.0389 117 90 69
230 317 -28.2716 134 103 82
231 317 -25.1465 152 120 99
322 317 -18.0828 140 114 89
323 317 -18.2224 163 135 111
324 317 -25.9052 154 126 102
349 317 -85.9964 117 104 72
350 317 -90.9814 111 97 68
351 317 -94.6121 97 86 58
352 317 -100.805 69 58 36
228 316 -17.1355 111 86 64
229 316 -19.9786 130 102 80
230 316 -15.4646 145 113 92
321 316 -18.1431 119 93 70
322 316 -12.7855 141 113 91
323 316 -13.8297 164 136 114
324 316 -21.093 152 126 103
346 316 -85.5491 146 131 98
347 316 -77.6736 135 120 87
349 316 -83.011 110 96 67
350 316 -87.3778 96 85 57
351 316 -92.1469 77 65 39
82 315 -4.75551 255 228 204
228 315 -12.4963 121 94 73
229 315 -15.349 139 107 84
321 315 -11.8439 118 94 70
322 315 -5.97063 140 114 91
323 315 -7.56126 167 139 118
324 315 -15.586 152 125 104
345 315 -71.2672 144 129 96
346 315 -76.7436 142 127 94
347 315 -77.9611 128 115 83
348 315 -80.5354 108 94 65
349 315 -84.2564 95 84 56
350 315 -85.1819 79 68 40
227 314 -1.67446 90 68 47
228 314 -8.84406 123 92 71
229 314 -14 139 104 82
321 314 -9.58871 114 87 68
322 314 -0.174089 139 110 92
323 314 0.712976 171 142 124
324 314 -7.35259 153 124 106
346 314 -71.2359 123 108 75
226 313 8.22845 83 64 47
227 313 8.25242 104 79 59
228 313 -4.51417 123 92 71
229 313 -12.0156 142 114 92
322 313 4.30025 137 110 91
323 313 8.33952 174 145 127
324 313 1.30316 153 124 106
344 313 -62.4849 140 127 92
226 312 16.3919 94 75 58
227 312 11.1439 112 87 65
322 312 10.8828 139 112 93
323 312 15.3311 172 143 125
324 312 9.29198 155 126 108
343 312 -64.0019 125 112 80
344 312 -56.3886 126 113 79
226 311 20.8417 105 84 65
227 311 17.6107 124 97 76
322 311 16.9625 140 113 94
323 311 22.0418 174 145 127
324 311 17.7946 157 128 110
325 311 -5.35958 168 142 117
343 311 -60.5545 117 108 75
344 311 -56.0582 111 102 69
345 311 -61.1067 96 85 53
225 310 29.0198 88 71 53
226 310 23.2448 112 90 69
227 310 18.5804 127 100 79
322 310 23.255 140 113 94
323 310 28.7318 176 147 129
324 310 25.645 159 131 110
325 310 -3.06019 180 154 129
342 310 -49.4391 119 113 81
343 310 -55.364 106 100 68
224 309 46.4 75 60 39
225 309 36.9247 99 78 57
226 309 25.2387 116 94 71
227 309 17.9128 128 101 80
322 309 30.9354 140 113 94
323 309 35.6311 176 148 127
324 309 30.3042 159 131 110
325 309 1.89439 181 155 130
341 309 -39.3044 119 114 82
342 309 -42.4552 109 104 72
343 309 -49.9628 94 89 59
225 308 36.5971 105 83 60
226 308 22.8267 123 98 76
322 308 38.0006 137 112 90
323 308 42.0865 171 145 122
324 308 33.4582 158 130 108
325 308 10.8768 175 148 121
340 308 -25.1553 136 129 103
341 308 -35.5504 111 108 77
342 308 -38.8281 95 92 61
224 307 41.0181 95 75 51
225 307 35.0454 118 94 70
226 307 24.3857 138 107 87
322 307 44.8846 134 110 86
323 307 48.178 167 141 118
324 307 38.4713 158 130 108
325 307 22.0736 168 141 114
339 307 -27.1197 129 123 91
340 307 -21.2946 126 120 94
341 307 -28.6048 99 98 68
342 307 -32.2099 82 81 51
224 306 45.8438 121 99 75
225 306 41.4391 136 110 85
322 306 50.7068 132 108 84
323 306 53.9235 164 138 113
324 306 45.9398 158 130 106
325 306 29.329 168 141 114
339 306 -21.5793 120 115 83
340 306 -15.7148 111 104 78
341 306 -21.2727 87 88 57
342 306 -26.5849 73 73 45
224 305 51.4318 134 110 84
225 305 48.2439 141 113 89
322 305 56.2285 131 107 81
323 305 59.5739 163 137 112
324 305 54.4944 159 131 107
325 305 34.8684 171 144 115
338 305 -12.2787 126 120 86
339 305 -17.7876 108 105 72
340 305 -12.8434 95 94 63
341 305 -18.887 78 78 50
223 304 64.5683 101 79 55
224 304 55.0451 137 111 88
225 304 49.0389 134 106 84
322 304 62.5709 133 109 85
323 304 65.4883 154 130 106
324 304 63.6469 157 131 106
325 304 44.2361 165 141 107
336 304 3.8002 153 131 108
337 304 -5.48815 131 120 88
338 304 -8.99691 114 105 72
339 304 -7.62048 95 90 60
340 304 -12.6914 88 87 57
222 303 79.259 88 68 44
223 303 69.2091 124 100 76
224 303 59.3885 138 110 88
322 303 66.1191 131 107 83
323 303 72.0945 146 122 98
324 303 68.6213 156 132 106
325 303 52.5369 156 132 106
335 303 6.92714 153 129 105
336 303 6.07954 150 128 105
337 303 0.405179 120 109 79
338 303 -0.256173 100 94 62
339 303 -2.91963 87 82 52
340 303 -7.92567 78 77 49
222 302 81.5424 114 89 67
223 302 74.9877 137 111 88
224 302 62.5943 136 108 84
322 302 73.8859 129 105 81
323 302 79.471 141 117 93
324 302 72.622 154 130 104
325 302 58.5021 154 130 104
335 302 10.8522 148 126 103
336 302 9.41443 140 119 98
337 302 0.838932 115 104 74
338 302 2.88505 94 87 59
339 302 1.21421 72 68 41
79 301 65.3677 247 219 195
222 301 80.7762 121 97 73
223 301 75.7842 135 109 84
322 301 82.072 126 102 78
323 301 86.7098 144 120 96
324 301 79.0144 152 128 102
325 301 62.9706 156 136 103
326 301 63.1788 156 132 104
335 301 10.6435 141 127 100
336 301 9.96651 130 119 91
337 301 3.6703 108 99 70
338 301 5.03098 88 82 56
339 301 1.5 63 59 34
32 300 23.441 146 128 104
79 300 75.6431 255 225 201
221 300 83.9048 96 71 51
222 300 81.7994 125 97 75
223 300 77.7454 133 105 81
323 300 92.8742 150 128 104
324 300 87.7014 150 126 100
325 300 67.9445 159 138 107
334 300 23.6469 155 135 110
335 300 13.7723 137 123 97
336 300 11.0725 124 114 87
337 300 11.6624 91 84 58
338 300 7.94457 75 69 47
339 300 0.860752 54 49 29
32 299 38.3801 151 133 109
221 299 88.1341 104 79 57
222 299 83.4674 124 96 72
223 299 80.7195 131 104 77
322 299 97.7973 124 102 78
323 299 98.5602 153 132 105
324 299 96.6947 151 127 99
325 299 74.5578 157 138 108
333 299 27.2223 152 132 105
334 299 28.6356 149 131 107
335 299 19.9669 125 110 87
336 299 14.6757 111 101 76
337 299 16.0517 78 72 48
338 299 9.27551 62 57 37
32 298 51.2092 149 133 108
220 298 88.9849 86 68 46
221 298 90.6738 107 85 62
222 298 85.3874 122 96 71
322 298 102.406 127 105 81
323 298 103.669 146 125 98
324 298 103.424 150 129 100
325 298 82.5369 152 131 100
326 298 82.2506 155 132 101
333 298 32.2668 140 120 95
334 298 35.1148 136 118 96
335 298 23.6762 107 94 75
336 298 17.2098 89 81 60
337 298 14.6932 64 59 37
338 298 12.9264 50 47 28
32 297 55.1395 147 133 107
220 297 96.5274 94 76 54
221 297 95.6455 109 89 64
322 297 104.566 130 109 82
323 297 107.696 138 117 88
324 297 109.097 151 130 99
325 297 92.3269 150 130 97
326 297 90.8063 155 132 100
332 297 28.1149 138 122 99
333 297 38.3504 128 111 85
334 297 39.5192 119 103 80
335 297 27.2944 94 83 63
336 297 20.7645 73 66 47
220 296 102.815 105 89 66
221 296 96.3114 112 95 69
322 296 107.295 127 108 78
323 296 112.752 139 120 88
324 296 111.236 146 126 93
325 296 99.2578 152 132 97
326 296 96.396 152 129 95
330 296 47.5908 148 123 103
331 296 37.5971 148 131 111
332 296 39.9418 141 126 103
333 296 40.7814 117 105 83
334 296 34.5162 108 95 76
335 296 31.8675 76 68 49
336 296 20.5457 54 49 30
220 295 104.339 107 92 69
221 295 97.5138 121 94 77
322 295 113.703 128 109 77
323 295 118.546 140 121 88
324 295 114.772 145 127 91
325 295 102.516 148 128 93
330 295 50.9103 147 125 102
331 295 43.8078 146 131 110
332 295 41.9085 133 121 97
333 295 41.7665 104 93 71
334 295 36.7574 91 80 60
335 295 33.3475 60 53 35
219 294 112.677 96 83 64
220 294 108.197 117 102 79
221 294 102.023 129 100 84
322 294 119.379 123 106 76
323 294 124.922 136 117 85
324 294 118.975 139 120 87
325 294 107.665 143 125 89
326 294 110.197 145 127 91
330 294 55.769 133 116 96
331 294 47.1286 134 119 100
332 294 42.9488 115 104 82
333 294 41.6293 83 75 54
334 294 38.886 66 59 40
218 293 122.607 88 75 58
219 293 120.362 114 99 80
220 293 113.613 124 109 86
322 293 126.79 121 105 72
323 293 132.161 130 114 81
324 293 128.086 134 118 84
325 293 119.541 146 128 92
326 293 122.618 148 130 94
331 293 50.955 109 96 77
332 293 49.3964 92 84 63
333 293 51.2511 65 59 37
334 293 46.423 49 44 25
218 292 128.646 102 86 70
219 292 124.156 119 102 84
323 292 136.005 127 111 78
324 292 134.951 132 116 82
325 292 129.248 143 127 93
326 292 130.662 141 125 91
331 292 61.0583 94 83 65
332 292 60.9739 80 73 54
333 292 58.4157 59 54 34
334 292 52.1529 39 36 19
218 291 132.267 109 92 76
219 291 127.32 120 103 85
323 291 140.047 121 106 73
324 291 138.294 125 111 76
325 291 135.297 134 118 84
330 291 71.4257 101 88 71
331 291 67.0334 88 80 61
332 291 64.7323 76 71 51
333 291 60.3893 52 49 30
217 290 133.687 92 76 60
218 290 135.926 116 97 82
219 290 131.073 125 104 87
327 290 96.8301 127 110 80
328 290 85.0035 115 98 72
329 290 77.2294 102 87 68
330 290 71.9237 92 81 63
331 290 68.7519 81 72 55
332 290 64.0778 67 62 43
333 290 61.4729 39 36 19
217 289 142.928 102 85 67
218 289 140.754 120 101 84
327 289 109.873 134 119 88
328 289 91.0109 106 90 64
329 289 78.6685 89 76 59
330 289 73.4154 80 71 54
331 289 69.8155 70 63 47
332 289 65.5014 52 49 34
216 288 153.854 101 84 64
217 288 146.97 112 94 74
327 288 115.471 135 121 94
328 288 97.489 104 89 66
329 288 81.1241 97 85 69
330 288 79.8029 82 74 61
331 288 78.7637 56 49 39
216 287 152.636 108 92 69
217 287 147.808 122 98 74
327 287 110.845 95 85 58
328 287 101.095 83 72 50
329 287 90.3241 70 61 46
330 287 90.1915 52 46 34
215 286 168.965 104 88 63
216 286 155.211 120 102 80
217 286 150.838 134 110 86
328 286 89.2319 60 51 34
329 286 84.864 43 35 22
82 285 158.29 220 193 166
214 285 193.347 91 77 51
215 285 177.768 120 104 79
216 285 162.11 131 111 87
327 285 95.6178 61 54 35
328 285 92.004 47 41 27
214 284 194.046 110 94 69
215 284 183.654 127 109 85
325 284 113.468 75 68 49
326 284 107.147 67 62 43
327 284 97.5271 57 51 35
214 283 191.682 119 102 76
215 283 179.597 125 105 80
324 283 117.62 76 69 50
325 283 116.528 74 69 50
326 283 109.924 56 53 36
327 283 101.911 38 36 23
213 282 200.142 104 88 62
214 282 187.561 127 107 82
215 282 177.743 128 101 82
324 282 123.977 71 64 46
325 282 121.26 58 52 36
326 282 113.035 35 31 19
213 281 200.186 119 102 76
214 281 184.91 135 113 89
215 281 180.624 141 114 93
323 281 127.69 73 65 46
324 281 123.723 64 57 41
325 281 118.697 41 38 23
77 280 192.557 175 142 123
212 280 209.5 112 95 69
213 280 201.911 128 108 83
214 280 185.073 142 115 98
322 280 139.56 75 64 44
323 280 133.216 71 62 45
324 280 123.58 53 45 32
212 279 209.043 120 100 75
213 279 205.357 134 112 88
321 279 149.629 80 64 51
322 279 141.321 77 66 48
323 279 135.22 64 55 40
324 279 126.939 39 33 21
212 278 212.141 128 106 82
320 278 157.45 81 68 52
321 278 150.26 77 66 46
322 278 143.61 73 61 45
323 278 136.561 49 39 27
210 277 210.589 90 72 48
211 277 213.217 111 91 67
212 277 218.585 135 111 87
319 277 167.338 88 77 59
320 277 153.678 76 65 45
321 277 152.25 69 60 43
322 277 146.932 53 44 29
210 276 216.261 106 84 61
211 276 218.246 125 100 78
319 276 165.517 81 69 53
320 276 152.894 72 61 43
321 276 153.247 53 46 30
209 275 233.037 105 85 61
210 275 224.495 121 96 74
318 275 162.737 84 67 47
319 275 159.419 87 72 53
320 275 153.554 59 50 35
321 275 153.713 36 30 18
209 274 241.244 120 98 75
210 274 233.628 134 107 86
317 274 185.338 90 77 58
318 274 167.178 86 68 48
319 274 158.915 89 73 57
320 274 154.915 42 34 21
208 273 252.011 109 92 66
209 273 249.104 132 108 84
210 273 243.656 142 116 93
317 273 185.49 83 72 54
318 273 170.811 82 65 47
319 273 159.998 82 69 53
77 272 225.5 167 139 117
208 272 256.204 116 99 69
209 272 250.5 136 112 84
316 272 184.723 74 61 44
317 272 178.166 75 62 46
318 272 169.812 67 55 39
319 272 164.794 45 35 23
208 271 256.975 121 104 74
209 271 247.244 134 113 82
314 271 201.41 84 71 52
315 271 192.94 72 60 44
316 271 184.297 66 54 38
317 271 179.706 57 48 33
318 271 172.636 42 33 18
208 270 251.265 127 110 80
313 270 208.824 89 78 56
314 270 205.043 79 71 52
315 270 196.272 61 52 35
316 270 187.082 51 44 28
206 269 276.085 105 94 64
207 269 261.432 123 109 80
208 269 251.089 142 118 94
313 269 205.156 77 69 50
314 269 202.157 65 56 39
315 269 192.582 50 43 27
31 268 229.269 212 184 163
77 268 294.082 167 136 115
206 268 267.791 123 107 81
207 268 262.787 136 116 91
312 268 206.272 75 67 46
313 268 202.95 71 64 45
314 268 198.085 54 48 32
205 267 287.763 122 105 79
206 267 271.162 139 119 94
312 267 210.45 70 63 44
313 267 207.029 60 55 36
314 267 199.985 39 36 21
31 266 257.406 208 181 160
204 266 290.387 114 98 75
205 266 290.169 136 115 94
312 266 215.616 60 55 35
313 266 213.423 43 40 23
31 265 263.45 205 181 157
203 265 293.494 97 82 59
204 265 293.323 126 108 86
205 265 289.885 141 119 98
311 265 221.896 61 54 35
312 265 221.665 44 41 22
203 264 298.5 110 93 73
204 264 293.388 133 112 93
310 264 225.002 59 50 33
311 264 221.78 45 38 22
309 263 229.207 61 49 35
310 263 223.786 49 42 26
203 262 304.176 148 127 108
308 262 241.171 61 47 34
309 262 231.23 51 39 27
59 261 204.192 102 92 56
202 261 308.719 142 121 100
203 261 313.826 162 139 121
307 261 248.769 65 48 38
308 261 241.781 52 40 28
49 260 308.365 105 89 63
200 260 318.057 120 100 75
201 260 314.725 137 115 92
305 260 255.316 80 62 50
306 260 255.073 68 51 41
307 260 249.368 51 37 28
200 259 332.25 148 126 102
201 259 322.667 161 137 113
304 259 260.065 85 67 53
305 259 260.776 74 57 47
306 259 259.887 53 39 30
68 258 347.239 255 244 215
199 258 340.932 148 127 100
200 258 331.317 165 141 115
303 258 267.855 75 58 42
304 258 263.1 73 57 44
305 258 264.918 54 40 29
198 257 342.924 141 121 94
199 257 335.497 167 143 117
200 257 329.548 177 151 126
303 257 270.114 68 52 37
304 257 262.891 55 43 31
198 256 337.687 162 138 114
199 256 334.413 178 152 129
197 255 340.818 154 127 106
198 255 336.142 182 147 128
195 254 366.231 135 110 90
197 254 338.576 187 155 134
194 253 376.808 146 121 101
195 253 368.374 160 135 115
196 253 351.555 179 148 127
197 253 340.56 202 169 150
193 252 375.292 142 117 97
194 252 377.813 167 140 121
195 252 369.879 177 150 131
79 251 360.512 217 179 158
192 251 373.756 147 120 99
193 251 368.616 162 135 116
194 251 363.752 185 157 135
59 250 377.701 227 194 175
193 250 371.046 176 147 129
47 249 319.386 215 193 172
189 249 365.562 140 115 95
191 249 382.432 170 142 118
189 248 388.127 161 135 112
190 248 395.35 173 145 121
18 247 308.906 198 172 149
29 247 292.598 182 152 128
187 247 405.59 147 122 102
188 247 406.717 164 137 116
189 247 401.252 180 153 132
185 244 415.416 183 158 138
30 243 333.371 170 152 128
42 243 374.321 233 216 188
183 243 425.126 189 164 142
184 243 418.839 197 172 152
273 220 501.965 127 85 69
273 219 507.35 122 83 66
267 218 576.82 151 112 97
265 217 584.631 162 120 104
266 217 585.2 164 125 110
267 217 580.219 163 124 109
261 216 598.163 159 118 96
262 216 595.586 196 155 135
263 216 591.236 204 163 145
264 216 584.044 198 156 140
265 216 591.209 196 154 138
260 215 596.545 175 134 112
261 215 596.528 203 162 140
262 215 595.286 226 185 165
263 215 589.783 228 187 167
264 215 588.054 219 178 160
258 214 610.525 176 135 115
259 214 600.517 196 155 135
260 214 598.209 211 170 150
261 214 600.182 222 181 161
257 213 611.448 176 135 117
258 213 603.859 209 168 148
259 213 600.617 225 184 164
260 213 600.495 227 186 166
254 212 621.145 159 120 105
255 212 613.296 193 154 139
256 212 613.851 233 191 175
257 212 610.877 235 193 177
258 212 606.288 234 193 175
259 212 606.018 236 195 177
252 211 648.133 158 120 99
253 211 632.536 181 142 125
254 211 619.67 213 174 159
255 211 614.809 229 190 175
256 211 616.5 245 203 187
257 211 616.075 246 204 188
258 211 616.8 237 196 178
248 210 552.668 149 111 90
250 210 645.235 156 119 92
251 210 634.408 190 153 127
252 210 627.661 214 176 155
253 210 622.754 238 201 183
254 210 619.806 255 218 202
255 210 618.772 248 208 196
256 210 617.961 239 197 183
249 209 641.803 170 133 106
250 209 640.109 208 171 145
251 209 635.23 236 200 176
252 209 629.892 243 208 186
253 209 626.622 246 211 191
254 209 624.29 252 217 198
246 208 554.457 152 111 93
248 208 649.791 179 141 120
249 208 642.606 224 188 166
250 208 638.261 254 219 197
251 208 630.72 252 217 195
252 208 621.135 247 211 195
269 208 634.361 175 138 122
245 207 668.732 152 117 97
246 207 658.754 174 142 121
247 207 651.236 197 166 145
248 207 642.813 231 200 179
249 207 643.579 251 220 199
250 207 638.645 255 228 207
251 207 621.33 255 229 216
268 207 604.588 207 172 153
270 207 668.364 183 139 126
241 206 582.489 156 113 94
242 206 570.677 152 106 90
243 206 569.362 147 101 85
244 206 666.269 150 118 97
245 206 659.523 207 180 159
246 206 653.009 244 222 199
247 206 646.648 255 237 215
248 206 639.489 255 243 221
249 206 638.717 255 241 219
268 206 609.879 215 179 163
242 205 670.708 176 141 122
243 205 659.705 200 169 149
244 205 655.291 241 214 193
245 205 656.843 255 240 219
246 205 651.486 255 248 225
247 205 644.69 255 242 219
271 205 663.035 197 155 143
287 205 593.591 102 84 70
237 204 595.755 154 124 100
238 204 582.333 156 126 102
240 204 680.338 166 133 116
241 204 673.791 220 189 171
242 204 664.439 255 230 211
243 204 655.716 255 246 229
244 204 649.77 255 246 227
245 204 650.33 255 246 226
270 204 691.906 120 84 70
271 204 682.766 181 143 130
287 204 596.939 106 89 73
237 203 689.5 176 139 121
238 203 683.027 197 160 141
239 203 671.738 210 177 158
240 203 667.777 235 208 189
241 203 669.463 255 233 215
242 203 662.579 255 241 222
243 203 658.079 255 241 222
244 203 650.206 255 237 213
271 203 687.349 150 114 100
272 203 681.671 203 165 154
231 202 576.961 166 122 109
232 202 585.363 162 118 105
234 202 574.778 166 124 108
235 202 567.078 165 126 109
236 202 693.365 177 142 123
237 202 680.619 220 187 168
238 202 674.585 255 227 206
239 202 669.59 255 244 223
240 202 664.656 255 250 229
241 202 660.646 255 244 224
242 202 653.824 255 249 228
272 202 683.827 175 137 124
221 201 689.39 174 140 130
222 201 687.304 187 155 144
223 201 693.278 187 158 144
224 201 691.549 203 175 161
225 201 688.582 213 186 169
226 201 684.207 226 199 182
227 201 683.386 227 200 181
228 201 681.231 229 202 183
229 201 683.824 228 200 179
230 201 683.239 231 203 182
231 201 684.689 232 201 183
232 201 684.201 234 203 185
233 201 680.084 230 199 181
234 201 674.818 233 202 184
235 201 672.704 240 211 193
236 201 675.647 251 224 205
237 201 676.684 247 222 202
238 201 673.612 255 235 213
239 201 665.354 255 237 216
240 201 661.36 255 240 217
217 200 690.581 186 149 140
218 200 692.626 195 163 152
219 200 685.958 214 184 174
220 200 683.357 212 184 173
221 200 687.873 223 196 185
222 200 688.958 233 209 197
223 200 688.231 238 216 205
224 200 687.245 245 225 214
225 200 684.151 253 237 224
226 200 682.188 255 246 231
227 200 681.041 255 251 234
228 200 680.218 255 252 235
229 200 680.924 255 252 234
230 200 681.32 255 251 233
231 200 680.095 255 249 232
232 200 678.805 255 250 234
233 200 675.982 255 248 234
234 200 673.144 255 248 234
235 200 670.78 255 249 233
236 200 669.281 255 251 231
216 199 694.386 207 175 164
217 199 688.546 247 219 208
218 199 685.14 254 230 218
219 199 681.304 255 242 231
220 199 680.659 255 242 231
221 199 686.03 255 247 235
222 199 687.15 255 246 234
223 199 683.055 255 247 237
225 199 681.328 255 249 239
213 198 716.756 189 152 136
214 198 709.645 201 167 155
215 198 700.159 213 183 172
216 198 695.293 238 214 202
217 198 692.377 255 248 237
218 198 687.061 255 246 236
219 198 683.692 255 245 234
275 198 584.229 129 93 77
210 197 628.922 173 136 117
212 197 716.817 208 172 156
213 197 712.2 230 201 185
214 197 704.925 238 212 199
215 197 702.425 240 218 205
216 197 701.493 252 234 222
217 197 701.667 255 246 235
210 196 634.303 172 137 117
211 196 725.796 197 165 150
212 196 714.728 242 214 200
213 196 711.454 255 237 223
214 196 704.938 255 240 228
215 196 700.008 254 240 229
216 196 706.399 255 250 238
135 195 644.769 239 214 192
211 195 722.696 237 211 196
212 195 709.166 255 244 229
213 195 705.831 255 251 235
131 194 724.741 255 251 243
132 194 723.196 255 248 239
133 194 723.039 255 248 239
134 194 721.742 251 238 229
135 194 719.934 238 224 215
210 194 728.667 203 175 161
211 194 723.459 255 241 226
212 194 708.372 255 252 238
213 194 706.79 255 254 240
132 193 715.422 255 255 250
133 193 716.626 255 254 250
134 193 719.961 255 254 248
135 193 721.788 255 252 247
136 193 722.164 255 252 248
137 193 724.975 255 250 244
138 193 726.883 255 245 238
139 193 732.615 254 237 229
140 193 738.156 248 232 219
206 193 666.269 184 141 125
207 193 666.296 183 141 125
208 193 735.33 176 144 131
209 193 730.636 230 203 192
210 193 727.132 247 227 216
211 193 726.6 255 252 239
272 193 681.402 97 69 58
141 192 721.191 255 253 247
142 192 723.276 255 251 245
143 192 722.863 255 249 241
144 192 724.027 255 245 235
145 192 725.101 247 234 225
146 192 730.5 241 228 219
205 192 667.156 181 145 123
206 192 666.785 171 139 116
207 192 748.09 202 175 156
208 192 742.463 239 223 210
209 192 728.523 251 241 232
210 192 726.406 255 253 243
211 192 724.537 255 255 244
270 192 625.448 192 178 169
284 192 743.465 182 151 146
146 191 729.871 255 254 248
147 191 728.488 254 247 241
148 191 730.942 255 249 242
149 191 729.722 250 239 233
150 191 736.776 252 239 231
151 191 742.161 245 231 222
152 191 740.361 248 230 220
153 191 738.256 244 224 213
154 191 737.35 241 219 206
204 191 656.362 188 150 129
205 191 658.653 180 145 123
206 191 750.965 174 147 126
207 191 747.195 255 239 222
208 191 732.72 255 250 239
209 191 727.519 255 255 248
210 191 729.916 255 255 248
282 191 715.314 95 72 64
284 191 742.086 159 128 126
285 191 724.984 195 167 166
287 191 722.608 172 147 151
289 191 684.076 126 102 100
153 190 743.292 255 245 237
154 190 741.176 255 241 234
155 190 737.055 251 234 226
156 190 737.656 244 225 218
158 190 761.283 239 219 210
202 190 678.326 194 148 132
204 190 764.476 197 168 152
205 190 752.331 231 205 190
206 190 748.123 249 227 213
207 190 744.309 255 248 235
208 190 734.002 255 253 243
284 190 738.535 104 76 75
287 190 704.772 255 241 245
288 190 693.773 224 206 206
289 190 694.401 167 149 147
155 189 742.237 255 250 245
156 189 743.693 255 244 238
157 189 754.728 251 240 234
158 189 763.744 249 236 230
163 189 763.812 244 216 205
164 189 761 235 209 196
165 189 757.272 228 202 189
166 189 756.108 223 200 184
167 189 758.604 222 199 183
168 189 761.761 214 191 173
169 189 765.845 209 186 168
170 189 768.379 205 182 164
171 189 771.452 203 180 162
172 189 771.763 202 176 159
173 189 771.161 198 172 155
177 189 751.516 202 176 159
178 189 750.913 215 189 174
179 189 751.529 224 198 183
180 189 755.09 227 201 186
181 189 758.923 228 202 187
182 189 757.219 223 197 184
183 189 756.461 223 197 184
184 189 756.598 218 191 180
185 189 755.061 214 187 176
186 189 754.484 211 184 175
187 189 756.041 210 183 174
188 189 763.051 207 180 171
189 189 769.794 204 177 168
190 189 771.839 204 177 168
191 189 768.58 207 178 172
192 189 766.43 210 179 174
193 189 759.863 207 174 169
194 189 758.903 211 174 168
195 189 764.837 211 170 164
203 189 763.71 222 190 175
204 189 759.515 242 219 205
205 189 750.978 255 247 235
206 189 743.375 255 252 243
207 189 740.438 255 253 244
284 189 734.035 49 33 33
285 189 677.496 204 188 188
291 189 710.764 130 115 110
158 188 755.484 255 251 248
159 188 753.189 255 246 244
163 188 759.857 255 239 232
164 188 758.139 252 237 230
165 188 757.499 249 234 227
166 188 760.838 251 237 228
167 188 763.838 255 241 232
168 188 766.116 255 242 231
169 188 764.125 255 241 230
170 188 760.577 254 240 229
171 188 760.52 252 238 227
172 188 764.51 252 238 227
173 188 766.346 253 239 228
174 188 766.068 255 238 228
175 188 765.883 250 236 225
176 188 764.007 252 239 230
177 188 763.36 249 239 230
178 188 762.393 252 242 233
179 188 760.362 254 244 235
180 188 759.884 255 245 236
181 188 759.132 255 247 238
182 188 755.882 255 246 240
183 188 753.651 255 246 240
184 188 753.294 255 245 241
185 188 753.184 255 244 240
186 188 753.108 254 243 239
187 188 753.108 254 243 239
188 188 754.396 254 243 239
189 188 757.02 255 244 242
190 188 757.935 254 243 241
191 188 756.936 253 239 238
192 188 756.423 252 234 234
193 188 753.448 244 223 222
194 188 755.634 237 211 210
195 188 761.91 234 205 201
196 188 759.744 221 186 180
197 188 752.047 212 173 166
198 188 745.47 206 166 156
203 188 759.486 233 209 197
204 188 761.396 252 235 225
205 188 756.693 255 249 240
206 188 746.582 255 253 246
272 188 777.891 74 60 51
285 188 690.188 175 165 166
291 188 729.751 195 185 183
292 188 726.393 161 150 146
293 188 730.379 132 122 113
295 188 717.761 123 110 101
165 187 751.504 255 254 250
166 187 752.341 255 254 248
167 187 753.432 255 254 248
168 187 752.591 255 254 248
169 187 753.325 255 253 244
170 187 754.252 255 254 245
171 187 752.274 255 254 246
172 187 751.04 255 254 246
173 187 751.643 255 254 246
174 187 751.728 255 254 246
175 187 751.01 255 254 248
176 187 753.195 255 255 250
177 187 755.427 255 252 249
178 187 757.697 255 252 249
179 187 756.044 255 253 250
180 187 756.75 255 254 251
181 187 758.061 255 254 251
182 187 755.057 255 254 251
183 187 753.547 255 253 252
184 187 753.85 255 253 252
185 187 754.478 255 254 253
186 187 754.807 255 254 253
187 187 754.259 255 254 253
188 187 753.507 255 254 253
189 187 753.963 255 254 255
190 187 754.152 255 254 255
191 187 752.799 255 252 253
192 187 752.389 255 252 253
193 187 751.818 255 251 250
194 187 753.791 255 242 241
195 187 756.527 255 238 236
196 187 756.926 254 230 226
197 187 760.773 254 226 222
198 187 763.826 245 216 208
199 187 762.125 243 213 203
200 187 760.297 240 212 200
201 187 760.391 239 212 201
202 187 762.924 234 214 203
203 187 763.842 247 233 224
204 187 759.851 255 253 246
285 187 688.863 157 151 151
294 187 724.63 157 148 141
295 187 729.876 131 122 115
196 186 760.006 255 251 248
197 186 765.48 255 252 247
198 186 770.1 255 246 240
199 186 767.074 255 245 239
200 186 764.655 255 252 243
201 186 766.332 255 253 244
202 186 764.258 255 252 242
203 186 762.797 255 250 242
204 186 764.666 255 254 250
285 186 677.124 148 143 147
295 186 746.366 180 172 169
199 185 768.293 255 255 251
200 185 764.879 255 254 249
201 185 763.279 255 255 250
301 185 782.903 128 109 111
286 184 762.644 240 239 237
299 184 734.89 205 199 199
284 183 699.715 41 36 33
286 183 762.954 206 202 199
300 183 736.79 234 230 231
301 183 726.291 198 192 194
284 182 713.438 49 41 38
306 182 769.124 140 125 120
287 181 784 236 232 233
304 181 744.347 213 203 201
306 181 768.948 150 136 135
307 181 759.356 153 138 135
286 180 693.331 69 63 65
287 180 795.346 220 215 219
304 180 744.98 246 237 238
287 179 805.153 195 193 196
308 179 783.025 105 91 91
287 178 806.474 170 168 171
306 178 751.483 223 217 219
307 178 773.18 165 154 160
308 178 787.076 122 107 110
309 178 797.231 99 84 81
274 177 786.358 81 67 56
287 177 809.388 145 143 146
308 177 775.59 180 170 171
309 177 796.207 132 121 119
272 176 732.052 190 181 164
274 176 785.706 85 73 59
308 176 772.565 236 232 233
309 176 785.838 186 180 180
310 176 797.124 134 126 123
311 176 790.773 109 100 93
272 175 725.058 205 196 181
274 175 789.681 79 72 54
311 175 786.631 159 154 151
312 175 770.267 111 103 100
313 175 807.082 110 101 96
312 174 786.122 167 159 157
313 174 803.823 146 136 134
314 174 811.78 104 93 89
275 173 742.932 80 73 55
287 173 829.219 70 69 67
312 173 786.068 232 226 226
313 173 797.338 194 186 184
274 172 779.465 60 57 38
275 172 753.595 85 80 61
288 172 860.576 177 167 168
315 172 804.248 167 157 158
316 172 808.17 138 128 129
317 172 820.84 136 127 128
318 172 819.337 123 115 113
319 172 823.33 116 108 106
275 171 756.911 80 77 58
288 171 874.679 144 132 132
315 171 807.21 224 218 220
317 171 826.215 149 143 145
318 171 824.716 120 114 116
274 170 777.259 42 41 23
275 170 766.491 77 74 55
288 170 886.042 115 101 101
317 170 843.164 197 192 196
318 170 837.624 156 151 155
321 170 809.194 103 94 95
322 170 822.291 104 95 96
323 170 846.537 96 88 86
274 169 772.534 50 49 31
288 169 890.111 97 81 81
320 169 862.259 165 162 157
322 169 838.107 134 128 130
323 169 843.38 119 113 113
324 169 871.428 102 92 90
288 168 891.361 88 72 72
289 168 876.256 170 156 156
320 168 904.819 241 240 236
321 168 885.363 225 221 218
322 168 859.309 189 184 188
323 168 845.361 174 168 170
324 168 848.571 106 100 102
288 167 896.695 72 58 57
289 167 879.297 153 139 139
323 167 833.797 241 236 240
327 167 843.821 95 87 85
332 167 877.826 103 85 83
327 166 871.576 144 138 140
328 166 862.31 121 115 117
329 166 858.648 107 98 99
328 165 846.748 231 227 228
329 165 835.117 193 189 190
330 165 821.019 144 143 141
332 165 854.004 94 89 93
334 165 905.77 92 72 71
330 164 800.368 228 228 228
332 164 856.346 123 118 124
333 164 869.215 74 72 77
334 164 895.286 69 53 54
273 163 813.53 237 213 203
289 163 932.564 82 78 79
332 163 845.728 230 229 234
333 163 841.214 176 176 176
334 163 830.783 133 132 130
337 163 909.486 56 53 44
274 162 813.806 148 126 115
289 162 921.035 68 66 67
333 162 835.935 250 250 252
334 162 825.504 233 231 232
335 162 820.054 156 154 155
336 162 858.624 52 52 62
337 162 874.633 30 29 37
348 162 907.572 53 50 33
349 162 913.584 65 59 43
271 161 857.407 212 194 180
272 161 856.29 170 148 134
274 161 814.141 154 132 119
335 161 856.062 250 251 255
336 161 858.607 229 229 239
337 161 853.065 179 179 179
338 161 844.359 136 134 135
339 161 828.29 81 79 80
340 161 828.463 28 26 27
271 160 870.161 167 144 126
272 160 869.122 110 88 64
337 160 859.37 255 255 253
338 160 847.953 255 253 255
339 160 827.939 232 230 235
340 160 816.396 167 165 170
341 160 958.652 87 87 87
342 160 934.821 63 62 68
343 160 933.096 37 36 44
343 159 872.17 218 219 221
344 159 861.568 174 174 174
345 159 842.948 82 84 81
346 159 959.509 57 57 47
347 159 945.372 76 73 56
348 159 937.431 98 90 69
269 158 852.189 202 184 172
274 158 914.44 186 157 141
275 158 891.054 140 112 100
291 158 946.322 145 143 144
292 158 961.753 248 248 250
343 158 871.232 255 254 255
344 158 871.827 255 255 255
345 158 866.734 155 157 156
347 158 937.817 70 67 50
348 158 940.644 102 94 73
269 157 833.954 150 136 123
271 157 937.037 78 56 42
275 157 887.978 140 113 102
292 157 978 231 226 230
344 157 878.445 251 255 255
345 157 880.683 207 211 210
346 157 884.227 84 89 85
348 157 940.658 94 86 67
292 156 844.828 220 220 222
345 156 889.321 251 252 254
346 156 887.034 131 133 132
268 155 875.559 141 132 117
292 155 861.409 207 207 207
345 155 890.157 255 255 255
346 155 884.03 188 192 195
347 155 881.354 101 102 104
354 155 952.853 112 88 78
355 155 945.022 120 93 84
268 154 882.051 142 135 119
292 154 867.578 190 188 191
346 154 891.881 227 228 233
347 154 897.518 149 145 142
350 154 889.258 117 105 91
365 154 892.916 118 105 88
268 153 888.333 129 123 107
272 153 886.755 56 44 18
274 153 947.875 185 163 149
276 153 890.189 95 87 64
346 153 898.45 253 253 255
347 153 906.474 196 192 189
350 153 897.78 120 106 95
365 153 894.116 126 113 94
269 152 952.436 87 76 56
276 152 897.706 94 86 65
347 152 905.522 240 235 242
350 152 897.07 145 126 119
351 152 893.763 125 107 93
347 151 913.719 255 253 255
348 151 906.936 213 204 207
349 151 904.686 162 148 147
350 151 897.393 161 141 134
351 151 893.989 150 131 117
352 151 900.55 119 103 87
275 150 930.65 211 199 187
347 150 923.636 255 253 253
348 150 919.19 220 209 213
349 150 908.141 181 165 165
350 150 901.584 177 153 149
352 150 916.422 121 106 87
353 150 904.338 106 93 74
269 149 957.039 105 97 78
275 149 931.696 204 192 180
293 149 996.349 126 112 112
294 149 1003.81 234 222 222
295 149 1002.64 255 252 251
296 149 1000.69 255 253 251
297 149 999.534 255 254 251
298 149 1000.34 255 253 250
299 149 1001.55 255 254 250
300 149 998.641 255 255 253
301 149 997.512 255 255 253
302 149 998.559 255 254 252
303 149 995.386 254 252 253
304 149 994.212 255 253 254
305 149 990.587 255 254 253
306 149 992.603 255 252 251
307 149 993.392 255 254 253
308 149 982.344 255 253 252
309 149 986.762 255 254 253
310 149 983.082 255 253 252
311 149 985.372 255 254 253
312 149 987.168 255 253 252
313 149 991.988 255 254 253
314 149 990.827 255 254 253
315 149 987.6 255 253 252
316 149 987.027 255 253 252
317 149 988.199 255 254 253
318 149 987.59 255 254 253
319 149 986.766 255 254 253
320 149 984.218 255 253 253
321 149 984.218 255 253 253
322 149 985.092 255 253 253
323 149 985.46 255 253 253
324 149 984.99 255 253 253
325 149 984.59 255 253 253
326 149 984.59 255 252 252
327 149 984.9 255 253 252
328 149 984.865 255 254 253
329 149 986.438 255 254 253
330 149 986.535 255 254 253
331 149 986.506 255 255 253
332 149 986.167 255 255 253
333 149 983.83 255 255 253
334 149 982.79 255 255 253
335 149 984.09 255 254 252
336 149 984.877 255 255 250
337 149 983.729 253 252 248
338 149 985.512 255 254 255
339 149 987.173 254 254 255
340 149 987.002 255 255 255
341 149 985.813 252 252 250
342 149 986.24 254 255 250
343 149 986.681 255 254 250
344 149 987.601 255 251 252
345 149 987.684 255 250 254
346 149 988.025 255 251 255
347 149 976.548 230 218 222
348 149 955.147 219 208 206
352 149 926.954 131 119 103
353 149 919.136 118 105 86
268 148 956.19 200 191 176
269 148 954.576 147 138 121
274 148 1019.5 241 227 214
294 148 1003.41 115 95 94
295 148 1001.37 169 151 149
296 148 1002.7 168 153 150
297 148 999.388 164 150 147
298 148 1001.91 160 150 148
299 148 1005.47 160 152 149
300 148 1002.11 162 154 152
301 148 1002.73 161 152 153
302 148 1006.02 157 148 149
303 148 1004.86 153 143 144
304 148 1002.56 157 145 147
305 148 994.764 152 140 142
306 148 993.451 149 137 139
307 148 1000.5 155 143 145
308 148 995.498 158 146 148
309 148 995.809 163 151 153
310 148 990.215 161 149 151
311 148 991.843 159 147 149
312 148 991.46 159 147 149
313 148 995.31 162 150 152
314 148 996.059 169 157 159
315 148 995.156 167 155 157
316 148 995.234 163 151 153
317 148 993.84 161 149 151
318 148 990.5 156 144 146
319 148 989.905 157 145 147
320 148 991.462 171 161 162
321 148 992.454 171 161 162
322 148 994.045 170 160 161
323 148 995.367 166 156 157
324 148 995.437 162 152 153
325 148 994.452 158 148 149
326 148 993.143 154 145 146
327 148 992.478 151 142 143
328 148 993.335 149 140 141
329 148 993.636 145 139 139
330 148 991.066 140 134 134
331 148 989.93 137 131 131
332 148 991.373 140 134 134
333 148 990.731 141 137 136
334 148 990.635 142 138 137
335 148 993.727 143 139 136
336 148 995.275 147 144 139
337 148 994.041 141 138 133
338 148 995.484 143 139 138
339 148 995.636 136 135 133
340 148 995.03 138 137 133
341 148 992.59 127 126 122
342 148 992.269 127 126 121
343 148 992.471 128 124 121
344 148 994.95 140 131 134
345 148 996.722 147 136 142
346 148 998.818 165 150 157
347 148 995.449 163 147 150
348 148 990.335 156 137 133
349 148 978.877 160 141 135
352 148 931.22 149 130 113
353 148 926.329 133 118 99
364 148 985.66 76 63 44
267 147 949.28 248 239 222
273 147 1029.18 114 107 89
300 147 976.189 56 41 36
306 147 981.15 51 29 31
312 147 998.535 44 30 29
313 147 1000.5 44 30 29
314 147 1001.5 50 36 35
315 147 1002.09 48 34 33
316 147 1002.67 45 31 30
317 147 993.791 44 30 29
318 147 980.537 56 36 38
319 147 980.25 59 40 42
320 147 998.78 48 34 33
346 147 1014.08 45 28 34
347 147 1012.68 80 61 63
348 147 1012.91 118 97 92
349 147 1005.41 153 130 122
350 147 983.962 169 149 140
353 147 934.017 147 131 115
364 147 990.712 76 61 42
273 146 1020.1 155 152 133
275 146 948.828 235 222 213
297 146 941.188 63 49 40
298 146 940.704 60 50 41
299 146 940.613 60 49 43
300 146 946.773 66 51 44
301 146 951.676 65 52 44
348 146 1021.3 84 61 55
349 146 1017.21 143 119 109
350 146 1014.06 171 147 135
352 146 948.677 188 165 151
353 146 939.549 169 151 137
359 146 951.465 82 71 51
273 145 1021.88 197 194 177
275 145 954.461 243 235 224
276 145 943.627 144 137 121
349 145 1023.88 104 82 71
350 145 1021.65 154 130 118
351 145 1011.6 173 150 136
353 145 940.454 182 163 148
354 145 939.465 161 142 135
359 145 950.347 88 80 61
275 144 957.332 245 242 227
350 144 1027.96 106 82 70
351 144 1020.12 166 140 125
352 144 1017.76 180 157 139
353 144 950.142 185 162 146
354 144 950.299 183 161 148
355 144 952.02 160 142 132
358 144 950.265 120 115 96
359 144 953.64 98 96 73
276 143 1047.01 191 179 165
350 143 1035.29 60 40 29
351 143 1029.17 127 104 90
352 143 1022.9 179 157 136
354 143 962.961 188 160 148
355 143 954.578 176 157 143
356 143 941.478 161 143 131
358 143 954.403 133 122 104
359 143 954.039 118 112 90
276 142 1047.6 208 194 181
351 142 1040.56 76 56 45
352 142 1034.55 142 123 106
353 142 1028.39 176 158 136
354 142 1011.81 185 156 148
356 142 949.957 176 154 140
