ply
format ascii 1.0
element vertex 1793
property float x
property float y
property float z
property uchar red
property uchar green
property uchar blue
end_header
255 379 -374.606 112 70 56
256 379 -375.885 113 72 54
257 379 -377.893 116 75 55
264 379 -457.277 125 105 80
265 379 -456.991 96 86 59
7 378 -355.143 116 84 71
11 378 -372.74 107 78 64
17 378 -397.22 91 63 49
24 378 -368.522 57 43 30
61 378 -379.709 83 51 38
75 378 -386.996 74 48 31
91 378 -379.283 93 67 54
103 378 -380.634 126 98 87
138 378 -467.41 191 154 128
139 378 -461.02 190 153 126
140 378 -465.717 192 155 128
165 378 -365.219 146 103 84
166 378 -372.49 137 96 76
167 378 -371.576 127 86 66
250 378 -367.364 58 29 21
251 378 -364.314 62 29 20
252 378 -368.884 74 40 30
253 378 -372.196 90 53 44
254 378 -370.122 96 58 47
255 378 -366.552 95 55 45
256 378 -371.021 105 63 49
257 378 -374.015 110 68 52
258 378 -372.617 116 73 56
265 378 -443.222 122 94 82
266 378 -438.761 80 60 49
137 377 -485.004 102 75 56
138 377 -480.674 122 95 74
139 377 -472.844 135 108 87
140 377 -478.28 121 94 73
165 377 -368.148 117 80 61
166 377 -371.577 105 70 51
250 377 -362.515 49 29 22
251 377 -364.858 54 29 22
254 377 -361.046 63 30 21
255 377 -360.089 71 37 28
256 377 -365.576 87 50 41
257 377 -363.744 97 57 47
258 377 -365.206 107 65 53
259 377 -368.831 119 73 60
260 377 -369.852 137 88 73
261 377 -375.293 141 92 77
265 377 -434.857 140 104 90
266 377 -436.257 111 83 71
267 377 -438.521 76 57 43
268 377 -444.607 41 37 25
164 376 -364.287 86 54 39
250 376 -355.811 39 25 22
251 376 -357.142 46 28 24
252 376 -360.23 47 26 21
256 376 -350.615 62 33 27
257 376 -353.981 68 35 28
258 376 -361.383 87 48 41
259 376 -359.849 107 64 55
260 376 -360.898 126 80 67
261 376 -364.958 141 93 79
262 376 -363.115 138 91 75
267 376 -434.982 99 71 57
268 376 -435.621 72 53 39
269 376 -435.752 53 39 28
251 375 -352.443 35 24 22
252 375 -354.179 38 24 21
259 375 -351.087 83 46 38
260 375 -353.048 104 64 54
261 375 -355 129 85 72
262 375 -353.632 148 102 86
263 375 -351.984 144 98 82
260 374 -348.257 74 41 32
261 374 -348.886 109 73 61
262 374 -348.258 156 117 102
263 374 -348.621 157 114 98
264 374 -351.534 153 110 94
265 374 -346.44 138 96 82
262 373 -345.04 106 74 61
263 373 -344.794 128 92 78
264 373 -343.537 133 94 79
265 373 -343.191 141 101 89
266 373 -349.971 130 94 82
264 372 -338.779 87 53 43
265 372 -336.068 115 78 69
266 372 -337.398 114 81 72
267 372 -339.38 105 76 68
268 372 -335.296 96 73 67
269 372 -330.058 77 58 54
268 371 -330.496 55 36 30
269 371 -331.236 56 38 34
213 362 -352.523 35 23 27
214 362 -354.453 36 25 29
215 362 -353.06 32 23 26
216 362 -348.017 34 24 25
214 361 -353.861 48 36 40
215 361 -353.143 47 37 38
216 361 -348.858 40 31 32
232 356 -321.231 33 28 24
190 355 -312.522 42 29 20
191 355 -306.762 45 30 27
232 355 -313.728 43 33 31
159 351 -285.496 50 33 25
160 351 -288.981 62 39 33
161 351 -287.772 58 38 31
168 351 -307.322 62 45 37
151 350 -298.568 47 35 23
152 350 -296.287 55 38 28
157 350 -285.387 74 49 42
158 350 -286.217 79 52 45
159 350 -284.539 77 50 43
160 350 -281.944 81 52 46
161 350 -279.749 79 52 43
162 350 -274.91 81 54 45
168 350 -289.885 85 60 53
162 349 -271.255 100 66 57
192 346 -270.465 133 90 84
193 346 -263.755 122 81 75
194 346 -259.629 113 72 66
193 345 -252.259 121 80 74
194 345 -250.929 117 74 68
195 345 -250.972 109 66 60
194 344 -248.216 120 76 73
195 344 -244.454 114 70 67
196 344 -238.284 105 65 53
194 343 -239.651 123 79 76
195 343 -236.797 115 75 63
196 343 -233.406 106 66 54
193 342 -232.77 128 87 85
194 342 -232.532 121 80 78
195 342 -232.181 111 71 69
196 342 -230.542 105 67 54
193 341 -228.778 128 88 86
194 341 -226.667 120 80 78
195 341 -228.188 113 75 72
196 341 -226.95 101 66 60
193 340 -222.17 129 89 89
194 340 -219.168 126 86 76
195 340 -220.318 111 77 75
196 340 -221.67 98 67 62
205 340 -218.103 80 59 56
192 339 -211.812 142 98 89
193 339 -212.567 133 93 83
194 339 -210.516 128 90 79
195 339 -209.991 114 78 66
204 339 -215.548 89 63 62
205 339 -211.371 83 62 59
206 339 -208.339 70 50 49
191 338 -207.746 144 97 91
192 338 -205.08 142 97 91
193 338 -201.072 134 94 86
194 338 -199.264 118 80 69
195 338 -199.733 99 65 53
204 338 -210.719 93 67 68
205 338 -206.659 86 65 62
206 338 -203.927 71 51 50
209 338 -132.21 67 39 35
191 337 -200.563 144 99 93
192 337 -199.454 140 97 91
193 337 -189.945 131 90 84
194 337 -183.584 103 66 58
199 337 -119.918 84 65 61
204 337 -204.462 95 69 70
205 337 -201.171 86 66 65
206 337 -196.608 73 53 54
209 337 -124.222 64 39 32
210 337 -124.544 71 44 37
211 337 -124.153 81 54 47
138 336 -100.601 122 72 65
191 336 -192.564 144 105 98
192 336 -190.751 147 106 102
193 336 -186.897 123 82 80
194 336 -182.99 92 57 53
198 336 -108.5 76 57 53
199 336 -114.824 85 66 60
203 336 -211.244 104 75 77
204 336 -199.367 97 71 74
205 336 -192.408 91 71 72
206 336 -198.17 66 50 50
210 336 -120.21 69 46 38
138 335 -98.0719 126 76 67
191 335 -187.776 142 105 97
192 335 -183.344 149 108 104
193 335 -184.47 121 81 79
194 335 -183.056 96 62 60
199 335 -108.103 86 67 61
200 335 -109.858 97 78 72
201 335 -106.047 94 76 72
203 335 -201.28 102 76 77
204 335 -192.355 100 74 77
205 335 -187.851 93 74 76
206 335 -189.691 70 56 56
138 334 -96.6745 129 81 71
190 334 -181.858 145 113 102
191 334 -182.391 141 107 98
192 334 -177.346 146 107 102
193 334 -178.279 125 87 84
194 334 -179.793 101 70 67
199 334 -101.773 86 67 60
200 334 -103.67 108 87 82
201 334 -97.4941 98 79 75
204 334 -185.644 101 75 78
205 334 -182.899 94 75 77
206 334 -180.481 81 67 66
190 333 -176.632 146 114 103
191 333 -176.748 143 109 99
192 333 -173.966 140 103 95
193 333 -169.307 133 98 94
194 333 -172.434 104 75 71
195 333 -194.169 81 58 50
199 333 -95.8951 87 68 61
200 333 -98.2154 115 94 89
201 333 -88.6178 97 78 72
204 333 -179.417 101 75 78
205 333 -177.021 92 76 76
206 333 -171.605 92 78 77
136 332 -90.8047 109 65 56
191 332 -172.353 145 107 104
192 332 -169.95 139 104 98
193 332 -161.342 139 106 101
194 332 -163.776 108 80 76
195 332 -187.922 79 56 48
199 332 -91.3207 89 70 63
200 332 -92.4072 114 94 87
201 332 -85.4184 98 79 73
204 332 -173.471 103 78 81
205 332 -170.788 93 77 77
206 332 -165.079 97 83 82
207 332 -172.908 52 41 35
136 331 -86.1703 112 65 57
191 331 -168.017 149 111 108
192 331 -164.82 144 110 101
193 331 -156.632 138 107 102
194 331 -157.555 112 87 82
195 331 -166.996 78 56 45
198 331 -86.1703 70 53 46
199 331 -85.8619 87 68 61
200 331 -84.0468 109 89 82
201 331 -80.1191 101 82 76
204 331 -168.574 107 82 86
205 331 -165.463 93 78 75
206 331 -159.616 94 80 77
207 331 -169.228 51 40 34
136 330 -80.5218 112 63 58
191 330 -163.373 152 112 110
192 330 -159.434 144 111 104
193 330 -153.04 139 108 103
194 330 -152.039 118 93 88
195 330 -152.25 86 67 61
198 330 -79.284 67 50 43
199 330 -79.1048 86 67 60
200 330 -76.7977 107 87 80
201 330 -74.0108 104 85 79
204 330 -162.657 109 87 90
205 330 -160.091 96 76 78
206 330 -154.049 89 75 72
207 330 -161.588 44 35 28
191 329 -157.162 151 111 109
192 329 -155.291 144 106 105
193 329 -148.174 141 110 105
194 329 -146.082 122 97 92
195 329 -142.544 90 71 65
198 329 -71.4544 65 48 41
199 329 -72.1521 88 69 62
200 329 -74.0886 109 89 82
201 329 -68.7634 103 84 78
204 329 -156.88 111 90 95
205 329 -153.91 99 81 79
206 329 -148.754 89 74 69
212 329 -76.8009 72 48 48
213 329 -74.6816 88 59 63
214 329 -78.4832 99 67 72
136 328 -70.9117 115 64 61
192 328 -147.824 145 110 104
193 328 -146.349 135 104 101
194 328 -144.056 123 98 94
195 328 -138.744 95 76 72
199 328 -66.8515 82 63 56
200 328 -68.751 108 88 81
201 328 -68.813 105 86 80
204 328 -150.051 109 88 93
205 328 -148 100 80 79
206 328 -143.848 95 77 73
211 328 -71.4516 57 39 37
212 328 -73 71 49 51
213 328 -69.0971 85 58 63
214 328 -69.7387 99 68 74
135 327 -64.7714 106 55 51
136 327 -65.6675 117 64 60
192 327 -141.266 146 111 107
193 327 -141.647 137 103 101
194 327 -141.428 120 92 91
195 327 -139.561 93 74 70
196 327 -144.92 64 47 39
199 327 -62.4611 77 60 52
200 327 -62.9291 106 87 80
201 327 -67.7477 106 87 81
204 327 -145.728 107 88 92
205 327 -142.957 98 82 85
206 327 -136.457 99 80 76
212 327 -67 76 54 57
213 327 -63.9269 93 68 72
214 327 -63.5463 99 70 75
215 327 -63.1333 102 71 77
135 326 -59.6501 108 57 53
136 326 -62.3499 119 66 62
193 326 -135.473 140 106 105
194 326 -136.493 119 94 89
195 326 -135.295 95 74 73
196 326 -135.102 65 50 47
199 326 -56.0055 70 53 46
200 326 -57.5576 103 84 78
201 326 -64.8376 109 90 86
204 326 -138.823 104 85 91
205 326 -137.322 101 85 88
206 326 -129.536 104 83 82
207 326 -114.441 65 50 47
211 326 -59.1793 70 52 52
212 326 -59.2056 89 69 71
213 326 -58.576 98 73 79
214 326 -58.3582 105 75 83
215 326 -60.1895 107 77 85
193 325 -127.091 147 111 113
194 325 -127.993 124 94 96
195 325 -127.562 103 82 81
196 325 -125.539 76 61 58
200 325 -51.7029 100 81 75
201 325 -58.001 110 91 87
204 325 -129.813 107 83 83
205 325 -131.812 103 87 90
206 325 -123.873 103 82 81
207 325 -117.655 72 57 54
210 325 -53.2056 61 45 45
211 325 -53.1974 99 80 82
212 325 -52.9093 105 84 89
213 325 -52.4963 104 79 85
214 325 -52.8851 109 82 91
215 325 -55.3659 112 82 92
216 325 -48.4783 116 86 94
136 324 -45.9638 121 66 61
137 324 -41.7641 128 73 68
193 324 -120.223 153 117 121
194 324 -119.906 133 102 107
195 324 -118.856 115 93 95
196 324 -116.147 89 75 72
200 324 -45.4814 97 78 74
201 324 -48.0536 107 87 86
204 324 -125.071 103 84 88
205 324 -129.192 107 88 92
206 324 -111.965 97 75 77
207 324 -87.8499 77 61 61
208 324 -50.5779 73 62 60
209 324 -46.22 95 81 80
210 324 -48.6844 111 95 96
211 324 -48.9188 111 90 95
212 324 -47.7539 105 82 88
213 324 -46.5099 106 80 89
214 324 -46.1478 111 83 95
215 324 -47.7372 115 87 99
216 324 -41.3788 117 90 99
217 324 -43.6956 120 93 102
136 323 -35.8156 124 69 62
137 323 -33.6832 130 77 69
138 323 -37.372 133 83 74
193 323 -114.73 156 119 126
194 323 -113.344 141 110 116
195 323 -110.569 127 105 108
196 323 -106.062 102 88 87
200 323 -37.9729 86 66 65
201 323 -39.0266 101 81 82
202 323 -43.5042 95 76 78
204 323 -121.069 105 84 89
205 323 -124.353 105 86 90
207 323 -61.7294 92 84 81
208 323 -43.6638 137 126 124
209 323 -42.1472 145 129 130
210 323 -43.8741 138 119 123
211 323 -44.0443 118 97 102
212 323 -42.9036 104 81 89
213 323 -41.092 106 80 89
214 323 -41.6383 110 82 94
215 323 -42.5693 110 82 94
135 322 -34.7714 109 55 45
136 322 -29.1224 122 70 59
137 322 -26.1719 130 77 69
138 322 -31.4501 132 82 73
193 322 -109.885 155 118 126
194 322 -108.393 145 114 120
195 322 -105.525 134 112 115
196 322 -101.19 113 99 98
200 322 -31.3808 83 65 63
201 322 -32.7117 98 78 79
202 322 -37.544 93 74 76
204 322 -118.432 104 84 86
205 322 -116.645 100 79 84
207 322 -56.931 90 80 79
208 322 -38.1453 119 105 105
209 322 -37.6683 116 97 99
210 322 -37.9814 112 91 96
211 322 -36.364 107 84 92
212 322 -36.1766 103 77 88
213 322 -36.8178 105 79 90
214 322 -38.7023 110 82 94
135 321 -28.1422 105 52 44
136 321 -24.3298 117 64 56
137 321 -20.0936 124 74 65
194 321 -103.871 146 115 121
195 321 -103.186 138 113 116
196 321 -99.1497 122 104 102
200 321 -22.3137 79 59 58
201 321 -27.6899 94 74 73
205 321 -107.548 94 74 76
207 321 -53.2555 83 71 71
208 321 -31.7252 101 82 84
209 321 -31.6245 109 89 91
210 321 -29.4451 104 81 87
214 321 -35.1762 106 79 86
215 321 -23.7641 109 82 89
137 320 -15.1067 114 64 57
138 320 -14.8197 119 70 63
139 320 -19.4501 129 82 74
194 320 -97.8958 147 115 118
195 320 -97.5985 145 115 117
196 320 -93.5138 136 112 110
197 320 -99.0042 83 66 59
200 320 -13.0104 78 57 54
201 320 -18.8582 90 69 64
208 320 -27.9386 86 66 68
209 320 -24.5302 92 70 73
213 320 -26.0874 104 79 82
214 320 -26.0733 106 80 83
136 319 -13.9459 100 51 46
137 319 -11.7804 111 62 57
138 319 -11.476 118 71 65
139 319 -13.5968 128 81 75
140 319 -8.76134 137 92 86
194 319 -92.4516 149 117 118
195 319 -91.5234 148 116 117
196 319 -87.9025 140 112 111
197 319 -92.7091 94 73 68
201 319 -13.0538 90 70 63
213 319 -17.3264 106 80 79
137 318 -7.14741 106 58 54
138 318 -8.90565 116 68 64
139 318 -9.08745 125 80 75
140 318 -4.56587 136 91 85
195 318 -86.0599 149 117 120
196 318 -83.9885 140 110 112
197 318 -86.8658 104 83 80
213 318 -10.2913 109 80 82
137 317 -3.18048 97 52 49
138 317 -4.80674 108 63 60
139 317 -4.42567 119 74 71
140 317 0.242177 132 87 82
195 317 -79.5948 151 119 122
196 317 -80.3296 139 109 111
197 317 -78.9828 115 91 91
212 317 -8.02036 106 77 81
213 317 -1.28768 110 81 83
139 316 1.51201 111 67 64
140 316 5.32424 125 81 78
195 316 -72.9696 158 123 129
196 316 -76.4716 141 121 120
197 316 -72.8075 126 100 103
212 316 -2.33248 109 78 83
139 315 7.22199 104 63 61
140 315 9.38855 119 78 74
141 315 7.36262 134 91 85
195 315 -66.6564 164 129 135
196 315 -72.1703 149 129 130
197 315 -66.3128 137 111 114
138 314 14.3759 87 49 48
139 314 13.4766 101 61 59
140 314 13.8914 115 74 70
141 314 13.222 130 86 83
142 314 9.03542 142 97 92
195 314 -56.2521 168 133 139
196 314 -62.5593 156 123 130
197 314 -58.2092 148 119 124
264 314 -71.6455 85 64 59
139 313 18.1541 96 58 55
140 313 18.208 109 70 65
141 313 20.077 122 81 75
197 313 -52.8869 153 124 129
198 313 -52.4096 140 115 119
237 313 -62.9271 130 91 92
238 313 -61.1621 124 85 86
264 313 -62.5976 84 64 57
139 312 21.9796 90 55 51
140 312 24.8341 107 68 63
141 312 27.3053 120 79 75
197 312 -46.7422 158 128 136
198 312 -47.9552 145 120 124
264 312 -61.0778 91 70 65
140 311 32.2771 101 64 58
141 311 34.5816 117 78 71
142 311 29.9958 135 92 85
198 311 -45.7432 147 122 126
264 311 -48.6372 89 68 63
141 310 40.5985 113 76 68
142 310 36.1414 130 90 82
263 310 -41.7752 103 75 74
264 310 -40.1549 90 69 64
265 310 -44.6577 77 60 52
141 309 44.3668 108 74 65
142 309 40.5554 125 87 78
263 309 -32.6457 101 80 79
264 309 -35.4797 97 73 69
265 309 -41.9611 76 59 51
141 308 50.1621 106 72 63
142 308 46.2994 120 83 74
263 308 -26.1577 106 82 80
264 308 -32.3761 107 83 79
140 307 55.9576 88 57 52
141 307 56.2323 103 70 63
142 307 51.1243 114 80 71
143 307 48.4611 125 91 79
263 307 -21.5693 106 82 78
264 307 -29.6678 118 94 90
140 306 62.441 91 60 55
141 306 61.7445 101 68 61
142 306 57.6531 110 76 67
143 306 57.9822 128 94 84
263 306 -16.2336 107 77 77
264 306 -24.9004 116 92 88
140 305 67.0623 92 63 57
141 305 64.5986 98 65 58
142 305 62.8742 106 72 63
143 305 67.1894 132 96 84
144 305 69.3184 134 101 86
263 305 -9.0042 103 78 73
264 305 -18.2951 106 83 77
140 304 74.0898 87 56 51
141 304 71.6426 97 63 54
142 304 71.2188 106 69 60
143 304 74.1096 132 94 83
144 304 76.5468 137 99 86
145 304 80.2865 144 106 93
264 304 -10.7987 97 73 63
281 304 70.1788 114 73 79
141 303 77.4864 92 58 49
142 303 77 104 66 55
143 303 79.7188 128 88 76
144 303 82.4502 133 93 81
145 303 85.7126 144 104 92
142 302 82.4767 102 62 54
143 302 85.5315 123 80 71
141 301 89.8 92 54 51
142 301 88.7463 104 63 57
143 301 90.7725 120 77 70
141 300 97.2488 96 56 54
142 300 96.738 111 67 64
143 300 97.512 122 77 72
276 300 36.0006 91 60 66
141 299 104.771 99 59 59
142 299 103.898 117 73 72
143 299 107.829 124 79 74
144 299 109.303 134 90 81
248 299 33.8531 134 98 100
264 299 27.6297 102 78 78
276 299 37.5607 91 60 66
141 298 111.094 103 61 62
142 298 111.001 122 76 76
143 298 115.639 128 80 78
144 298 114.961 137 90 84
248 298 38.5035 139 103 107
249 298 36.4113 125 91 92
264 298 30.6078 106 81 84
265 298 39.3922 93 72 71
276 298 39.3315 91 60 65
141 297 115.601 106 64 65
142 297 116.903 123 77 77
143 297 121.953 128 80 78
247 297 41.1226 153 113 122
248 297 45.1363 143 106 113
249 297 45.8569 128 96 99
263 297 30.9523 119 90 95
264 297 32.9099 112 85 90
265 297 43.0634 99 75 75
276 297 44.9477 89 60 64
141 296 119.386 109 68 66
142 296 126.645 122 74 74
143 296 125.622 130 80 81
246 296 39.4611 167 133 134
247 296 46.6067 156 116 125
248 296 48.3501 145 108 116
249 296 49.6359 132 97 103
263 296 34.584 122 91 99
264 296 42.2248 112 85 92
265 296 48.4817 97 73 73
141 295 125 109 68 64
142 295 132.242 122 74 72
143 295 126.888 134 84 83
247 295 54.0943 156 118 129
248 295 52.8709 144 109 116
249 295 56.3731 131 99 104
264 295 48.6531 110 80 88
265 295 57.3441 99 73 76
294 295 44.6202 61 53 50
141 294 131.889 112 71 67
142 294 138.305 124 76 74
143 294 131 138 88 87
246 294 56.9958 163 121 131
247 294 58.042 154 117 125
248 294 56.984 143 108 115
249 294 60.6577 132 99 106
250 294 63.4099 120 89 94
264 294 53.6374 105 74 82
265 294 63.5968 96 70 73
140 293 136.179 97 63 54
141 293 138.265 115 75 67
142 293 146.423 125 78 72
143 293 138.529 138 89 85
246 293 59.7714 162 126 130
247 293 64.0738 152 115 122
248 293 67.1228 143 108 115
249 293 67.489 130 99 105
250 293 67.939 118 89 93
251 293 67.8675 107 81 84
265 293 67.489 91 65 66
294 293 58.3714 67 59 56
140 292 143 98 61 52
141 292 145.062 114 74 66
142 292 152.935 121 76 70
245 292 63.7674 159 117 121
246 292 66.072 155 119 123
247 292 72.8724 148 112 116
248 292 76.9641 141 106 112
249 292 74.0809 126 94 99
250 292 71.1995 113 82 87
251 292 73.9208 107 78 82
252 292 76.0607 98 72 73
265 292 70.9964 88 62 63
294 292 62.7178 69 61 58
141 291 152.814 109 69 59
142 291 160.844 119 75 66
243 291 69.4611 146 97 101
244 291 69.8413 148 102 105
245 291 70.9905 148 106 108
246 291 72.8416 145 109 111
247 291 74.5878 140 104 106
248 291 77.0463 134 99 103
249 291 77.3783 121 90 95
250 291 77.437 109 80 84
251 291 81.9611 105 79 82
252 291 82.9312 94 70 70
264 291 75.6514 100 70 68
265 291 74 86 60 59
294 291 71.117 67 57 55
141 290 162.608 105 67 54
142 290 166.352 119 75 64
243 290 73.8476 137 87 90
244 290 75.349 139 90 93
245 290 77.5349 134 92 94
246 290 78.6797 132 96 98
247 290 78.588 126 96 98
248 290 82.5019 125 91 92
249 290 85.7469 118 86 89
250 290 86.8479 108 78 80
251 290 91.0509 102 73 75
252 290 92.6745 90 64 65
265 290 78.5758 86 57 61
292 290 74.769 94 65 67
294 290 79.0276 63 53 51
295 290 83.084 53 39 39
141 289 168.175 105 67 54
142 289 169.58 120 78 64
143 289 156.231 130 83 75
246 289 87.8879 116 81 77
247 289 89.0362 113 79 77
248 289 92.1418 109 78 76
249 289 96.5354 106 76 74
250 289 97.8736 95 67 66
265 289 83.9877 85 56 60
294 289 88.7445 63 45 45
295 289 90.2506 48 36 36
141 288 171.97 100 62 49
142 288 172.12 114 72 60
143 288 171.251 127 83 74
264 288 84.4859 96 63 70
265 288 89.0126 87 58 63
141 287 177.267 99 63 49
142 287 178.264 112 72 60
143 287 178.304 128 85 76
265 287 95.0956 84 57 62
141 286 181.489 96 63 48
142 286 185.272 110 72 59
143 286 185.139 128 85 76
144 286 181.812 143 95 93
146 286 187.917 156 108 106
265 286 99.6285 82 57 61
33 285 173.56 109 88 71
34 285 168.914 105 84 67
74 285 174.22 99 69 58
75 285 169.756 97 65 54
93 285 126.697 105 73 50
142 285 193.597 107 71 57
143 285 191.786 125 85 75
144 285 187.64 142 97 92
146 285 192.53 153 108 103
265 285 107.256 78 56 59
33 284 172.963 118 92 79
34 284 173.769 117 91 78
143 284 198.388 121 83 72
144 284 197.537 141 98 92
202 284 115.749 139 115 113
203 284 125.16 132 107 100
25 283 190.919 147 127 103
26 283 194.042 149 129 105
61 283 135.662 156 125 104
92 283 216.742 155 131 103
98 283 154.048 158 128 104
144 283 207.362 137 97 89
202 283 119.83 138 117 112
203 283 131.926 128 106 95
242 283 200.084 129 100 96
243 283 204.74 119 94 90
292 283 128.373 51 38 30
202 282 127.634 133 112 107
203 282 138.946 123 103 94
291 282 131.358 55 41 32
292 282 134.752 46 36 26
106 281 135.117 136 107 93
110 281 111.489 91 74 67
202 281 135.794 128 107 102
203 281 145.012 118 100 90
290 281 136.17 55 41 32
291 281 135.252 49 39 29
292 281 142.057 41 35 23
106 280 133.072 149 123 106
107 280 132.773 130 108 94
202 280 141.2 123 102 101
203 280 151.547 115 96 90
206 280 222.873 102 78 78
207 280 219.957 112 87 90
210 280 137.478 98 81 73
211 280 145.418 99 80 74
290 280 140 54 41 32
291 280 144.769 41 31 21
106 279 136.683 154 129 107
107 279 138.315 135 114 95
202 279 147.702 115 93 95
203 279 156.37 105 87 83
206 279 223.999 103 78 81
207 279 224.197 114 89 92
210 279 144.391 99 82 72
211 279 152.373 97 78 72
212 279 152.963 90 71 65
213 279 146 88 71 64
214 279 137.1 97 92 88
215 279 136.716 101 96 93
216 279 136.446 120 112 110
217 279 148.68 117 97 106
290 279 146 46 36 26
107 278 143.379 141 119 98
202 278 154.522 105 85 87
203 278 158.647 94 76 74
206 278 230.552 103 78 81
207 278 231.49 112 87 90
210 278 147.073 107 89 79
211 278 151.275 95 81 72
212 278 156.877 90 73 65
213 278 151.339 86 79 73
214 278 139.67 124 119 113
215 278 141.465 120 115 111
216 278 150.972 126 118 115
217 278 156.02 129 112 118
218 278 160.772 124 104 113
289 278 152 45 36 27
108 277 153.402 128 109 92
109 277 154.017 113 95 83
201 277 156.385 123 97 98
202 277 162.63 104 84 86
203 277 163.432 86 70 70
206 277 240.397 101 76 79
207 277 239.885 110 88 91
210 277 150.549 115 95 86
211 277 156.678 97 80 72
212 277 158.333 89 72 64
213 277 162.461 89 75 64
214 277 149.254 100 95 89
215 277 148.083 108 103 97
216 277 156.623 118 110 107
217 277 159.848 126 111 114
218 277 165.912 137 118 124
286 277 149.228 74 52 54
287 277 152.49 71 53 51
288 277 160.121 51 40 34
107 276 161.858 158 131 110
108 276 158.965 143 120 104
109 276 161.288 124 105 91
200 276 161.955 135 104 109
201 276 161.426 123 97 98
202 276 172.741 110 90 92
203 276 172.248 83 65 65
206 276 245.94 100 75 78
207 276 246.676 114 92 95
210 276 155.828 119 99 90
211 276 163.823 93 76 68
212 276 169.679 82 67 60
213 276 184.461 78 65 56
216 276 159.542 84 75 70
217 276 157.376 95 84 80
218 276 165.365 114 98 98
287 276 158.418 54 39 36
107 275 168.37 165 138 117
108 275 167.255 151 125 110
109 275 170.53 128 116 94
200 275 165.209 137 106 111
201 275 170.454 120 93 98
202 275 181.44 111 91 93
206 275 249.419 101 76 79
207 275 254.908 118 96 99
210 275 162.299 116 96 89
211 275 170.707 93 75 71
212 275 184.562 79 66 58
213 275 196.511 67 57 47
216 275 181.338 70 63 53
200 274 169.041 139 107 112
201 274 183.55 121 95 98
202 274 190.658 99 79 80
206 274 255.392 107 83 83
207 274 261.813 122 100 103
211 274 180.244 96 81 78
212 274 187.621 79 68 62
216 274 199.65 67 63 51
218 274 243.612 68 58 48
109 273 177.639 154 128 115
110 273 171.376 141 117 107
199 273 178.838 142 110 113
200 273 175.573 136 106 108
201 273 197.081 121 92 94
202 273 200.161 86 65 64
206 273 262.195 113 92 89
207 273 267.392 124 104 105
211 273 182.591 99 84 81
212 273 193.265 78 68 59
218 273 254.219 69 61 50
219 273 253.272 85 72 64
199 272 182.675 142 112 112
200 272 183.993 127 97 97
201 272 200.616 112 84 81
202 272 208.145 86 62 58
206 272 270.777 108 90 86
207 272 275.233 124 106 104
210 272 190.489 114 94 93
211 272 186.668 96 81 74
212 272 199.949 79 71 60
218 272 265.097 72 65 59
219 272 263.231 84 71 65
109 271 196.115 171 149 125
110 271 193.322 155 134 115
199 271 185.932 138 108 106
200 271 187.964 123 95 92
201 271 202.419 101 73 69
206 271 278.055 109 94 87
207 271 278.683 124 109 106
211 271 194.902 99 84 79
212 271 209.347 90 82 71
217 271 268.401 67 62 59
218 271 269.353 81 71 69
219 271 269.202 87 73 70
109 270 206.016 183 159 135
110 270 199.624 167 145 124
111 270 198.913 152 131 110
200 270 192.476 119 91 87
201 270 202.744 89 64 60
206 270 284.307 108 93 88
207 270 285.051 122 107 104
211 270 199.439 101 86 79
212 270 213.117 90 80 71
216 270 273.871 62 56 56
217 270 274.254 82 74 72
218 270 274.498 88 77 75
219 270 276.69 87 72 69
88 269 197.379 240 205 175
111 269 200.626 172 151 130
112 269 203.283 138 117 98
200 269 200.438 110 85 80
206 269 287.813 105 90 85
207 269 295.393 121 103 101
211 269 206 105 87 83
212 269 211.895 87 77 68
215 269 279.748 58 54 51
216 269 279.812 87 78 79
217 269 280.01 93 83 82
218 269 281.551 88 74 73
111 268 206.751 193 168 148
112 268 207.54 167 141 126
199 268 193.057 137 109 106
206 268 289.249 104 86 82
207 268 299.954 119 101 99
211 268 208.422 110 97 89
212 268 215.943 90 77 69
213 268 262.481 44 44 34
214 268 285.967 56 53 48
215 268 288.529 69 64 61
216 268 287 100 90 91
217 268 288.35 94 82 82
218 268 288.834 85 69 69
111 267 212.209 227 200 179
112 267 212.616 196 170 155
113 267 217.237 149 125 115
114 267 205.046 128 108 99
199 267 201.615 135 110 105
206 267 295.115 104 87 80
207 267 301.163 120 100 99
211 267 205.639 117 104 96
212 267 219.18 90 75 70
213 267 263.814 54 45 36
215 267 291.761 72 64 61
216 267 294.782 92 80 80
217 267 298.954 86 72 72
111 266 213.562 241 213 191
112 266 217.466 220 192 178
113 266 223.318 177 150 141
114 266 216.627 150 127 119
115 266 202.084 127 107 98
199 266 212.508 125 100 95
206 266 302.929 103 84 80
207 266 305.799 118 97 96
211 266 212.781 117 104 96
212 266 225.252 100 82 78
213 266 260.582 60 49 43
216 266 302.534 74 60 57
217 266 306.731 77 62 59
112 265 229.658 221 192 176
113 265 234.858 194 181 164
114 265 233.115 162 150 136
115 265 233.678 123 110 101
212 265 232.619 110 91 87
213 265 258.422 72 59 53
112 264 236.248 215 193 170
113 264 245.078 214 197 179
114 264 242.937 192 176 161
115 264 240.58 149 135 126
120 264 249.395 103 85 85
206 264 316.231 102 78 76
212 264 242.871 114 93 90
213 264 248.014 76 61 56
113 263 248.776 216 194 173
114 263 245.002 201 182 167
115 263 242.309 169 151 139
116 263 242 135 120 113
212 263 248.193 112 91 88
213 263 254.172 80 63 56
114 262 249.152 211 185 170
115 262 246.992 196 169 152
116 262 246.502 165 142 126
212 262 254.139 110 85 81
114 261 257.777 215 184 166
115 261 255.794 202 174 160
116 261 254.743 175 153 142
119 261 241.986 129 111 99
120 261 240.342 128 109 103
121 261 237.29 121 100 97
212 261 263.826 103 78 74
117 260 264.915 170 148 137
120 260 250.53 132 112 103
117 259 269.923 192 166 153
118 259 267.194 166 146 135
119 259 269.636 147 133 120
120 259 263.326 138 119 105
117 258 274.097 201 169 156
118 258 272.2 184 161 147
119 258 275.406 167 149 135
120 258 268.431 160 139 122
121 258 270.16 143 121 108
122 258 286.79 132 116 100
119 257 282.665 178 157 138
120 257 270.918 182 159 141
121 257 270.767 171 148 134
122 257 295.278 153 136 118
145 257 356.046 119 78 60
120 256 278.278 189 162 143
121 256 279.349 172 146 133
122 256 296.984 163 142 123
123 256 299.564 139 121 101
145 256 362.826 107 69 50
145 255 366.368 100 63 45
122 254 298.557 174 152 131
123 254 293.751 154 130 120
124 254 292.642 140 118 107
122 253 309.961 188 164 140
123 253 306.432 170 148 127
124 253 303.63 152 131 110
124 252 313.954 168 147 126
126 252 292.885 143 124 109
126 251 301.679 150 132 112
152 251 385.838 102 69 54
127 249 320.288 167 147 123
127 248 328.945 185 160 138
128 248 327.589 168 147 126
127 247 338 191 162 148
128 247 341.046 188 159 153
129 247 339.573 177 148 144
163 247 415.996 111 73 60
164 247 421.375 112 74 63
165 247 422.118 112 74 65
166 247 419.486 112 73 66
167 247 418.716 111 74 66
168 247 413.678 109 75 66
186 247 419.709 100 70 62
128 246 348.539 205 172 165
129 246 346.722 200 166 164
130 246 345.498 188 150 147
163 246 419.267 97 61 49
164 246 424.328 97 60 51
129 245 353.036 203 168 164
130 245 355.195 206 167 162
131 245 353.78 185 148 140
132 243 358.371 187 164 148
133 242 363.767 190 164 149
134 242 362.696 182 155 144
134 241 370.15 198 169 155
135 241 370.527 188 160 148
136 241 370.272 178 151 142
135 240 374.718 198 165 150
136 240 373.943 194 162 151
137 240 371.001 190 162 151
138 240 375.309 172 148 138
138 239 382.613 188 160 148
139 239 384.94 179 152 141
140 239 385.139 166 144 133
139 238 389.102 192 162 151
140 238 389.225 181 154 143
140 237 390.948 198 168 157
142 236 406.17 198 176 152
144 236 395.932 176 145 142
145 236 398.061 169 140 136
142 235 414.118 230 202 178
143 235 414.839 219 192 171
144 235 405.381 205 171 169
145 235 405.34 194 163 160
146 235 404.402 178 149 143
174 235 402.039 84 71 54
143 234 419.593 237 206 186
144 234 411.808 223 186 180
145 234 413.31 208 173 167
146 234 413.496 191 161 153
147 234 421.304 190 160 152
131 233 505.741 247 203 192
143 233 425.232 236 201 182
153 232 423.65 166 144 131
155 231 436.812 183 149 139
156 231 433.19 173 143 132
157 231 434.504 168 133 127
157 230 438.326 180 148 137
158 230 438.684 177 145 134
159 230 438.907 167 139 127
160 230 436.023 160 138 124
161 230 443.232 150 125 118
278 230 429.029 75 63 47
279 230 431.069 75 65 53
295 230 442.958 120 103 83
158 229 444.833 197 165 150
159 229 443.518 193 164 150
160 229 440.88 199 173 158
161 229 442.438 177 155 141
162 229 445.847 170 148 135
163 229 445.454 163 144 130
164 229 440.934 156 137 122
165 229 438.118 149 130 115
178 229 438.269 114 97 81
179 229 437.446 109 91 79
276 229 450.05 87 68 54
277 229 450.261 113 91 78
278 229 445.2 109 92 74
279 229 450.322 111 86 79
293 229 453.196 136 112 88
160 228 453.102 198 170 156
161 228 449.004 193 163 152
162 228 448.678 196 168 157
163 228 448.326 192 165 154
164 228 447.208 187 161 148
165 228 448.489 180 154 139
166 228 447.592 175 152 136
168 228 438.874 165 140 133
169 228 437.385 156 131 126
171 228 432.054 152 128 118
216 228 442.637 85 64 61
276 228 455.894 110 84 71
277 228 457.564 150 121 107
278 228 454.883 146 114 103
279 228 462.425 138 108 98
293 228 458.792 115 94 67
154 227 541.639 210 174 162
164 227 456.972 205 176 162
165 227 459.271 212 182 172
166 227 458.66 226 198 187
167 227 454.899 234 206 194
168 227 446.854 234 205 199
169 227 447.228 219 190 186
170 227 447.163 207 178 172
171 227 446.956 205 176 168
172 227 448.94 192 165 154
173 227 451.431 180 154 141
174 227 456.16 164 140 128
209 227 453.929 85 74 56
210 227 456.792 86 73 57
211 227 455.08 86 69 59
212 227 454.624 85 68 60
271 227 448.182 69 62 43
272 227 455.001 73 67 45
273 227 453.461 75 64 42
277 227 459.505 146 110 94
278 227 459.222 155 117 104
166 226 469.029 244 210 200
167 226 465.666 244 210 201
168 226 461.347 250 219 214
169 226 462.34 247 216 213
170 226 463.449 239 208 203
171 226 460.795 242 212 204
172 226 460.977 235 205 195
173 226 460.157 226 196 186
174 226 458.677 217 188 180
175 226 458.853 211 183 172
176 226 459.118 201 175 158
177 226 459.255 188 162 145
178 226 456.632 178 152 137
179 226 455.206 172 144 133
180 226 456.737 164 135 127
181 226 451.793 155 126 122
182 226 447.621 142 114 111
183 226 446.961 132 108 104
208 226 459.152 91 78 61
209 226 464.435 87 80 72
210 226 463.283 97 81 66
211 226 460.578 96 78 68
242 226 515.008 80 64 64
247 226 520.975 74 65 58
248 226 524.794 74 65 58
249 226 532.861 71 62 57
250 226 532.367 72 61 59
251 226 531.66 73 61 61
257 226 454.01 85 72 55
258 226 455.312 97 86 68
259 226 456.706 110 102 83
260 226 459.581 112 101 83
261 226 459.706 111 98 82
262 226 461.521 106 93 77
263 226 460.074 102 89 72
264 226 458.836 93 85 66
265 226 456.288 89 81 62
266 226 458.004 83 72 54
267 226 456.804 82 69 52
268 226 450.123 86 69 53
269 226 448.561 93 76 58
270 226 457.037 106 91 72
271 226 457.69 110 97 78
272 226 461.219 107 95 73
273 226 461.897 109 92 72
274 226 467.062 118 92 77
171 225 476.373 249 213 201
172 225 472.136 237 199 190
173 225 472.199 233 195 186
174 225 471.498 237 196 190
175 225 470.74 234 195 190
176 225 468.894 225 198 181
177 225 463.977 223 196 179
178 225 460.037 212 184 170
179 225 462.483 195 165 154
180 225 467.538 184 154 144
181 225 469.092 172 142 134
183 225 475.791 153 131 118
184 225 471.241 148 126 113
185 225 469.634 141 123 113
186 225 462.918 137 121 108
187 225 441.537 134 118 105
188 225 430.228 129 112 102
189 225 425.117 119 102 92
209 225 469.746 104 91 72
228 225 426.027 92 79 62
230 225 441.881 108 97 77
231 225 431.458 107 94 77
240 225 552.082 88 74 65
241 225 547.276 91 74 67
242 225 543.37 83 68 65
245 225 543.98 83 72 68
246 225 558.877 80 69 63
250 225 463.399 102 96 74
251 225 467.009 105 99 77
252 225 461.379 117 106 86
253 225 459.246 119 106 87
254 225 460.326 119 102 84
255 225 464.374 125 107 87
256 225 465.418 138 117 96
257 225 466.305 142 121 100
258 225 466.958 138 120 98
259 225 464.988 145 128 108
260 225 465.593 143 125 105
261 225 462.47 146 128 108
262 225 464.718 144 126 106
263 225 463.136 144 127 107
264 225 465.129 141 126 105
265 225 465.242 143 128 107
266 225 468.117 138 122 99
267 225 469.582 141 123 101
268 225 469.477 147 127 103
269 225 467.44 148 126 103
270 225 472.206 147 129 117
271 225 481.007 156 134 121
272 225 485.584 156 133 119
174 224 474.035 221 183 170
175 224 474.489 216 180 166
179 224 471.349 201 169 156
183 224 479.203 190 164 151
184 224 473.576 182 156 143
185 224 474.087 173 150 136
186 224 471.065 163 141 127
187 224 464.225 160 141 126
188 224 462.48 154 135 121
227 224 444.103 116 97 82
228 224 446.709 122 104 84
229 224 447.945 128 111 91
230 224 464.724 129 112 92
231 224 468.238 128 111 91
239 224 534.232 96 87 72
240 224 549.643 102 85 75
243 224 458.328 128 111 91
244 224 452.852 131 114 94
245 224 462.34 133 117 94
246 224 470.014 138 123 100
247 224 473.302 140 126 100
248 224 471.52 157 143 117
249 224 473.178 162 148 122
250 224 473.654 173 157 132
251 224 474.802 163 145 121
252 224 474.887 166 144 121
253 224 472.611 175 150 128
254 224 474.17 169 142 123
255 224 473.733 180 152 131
256 224 472.545 188 156 135
257 224 467.991 187 155 132
258 224 466.342 180 150 126
265 224 475.483 171 151 126
266 224 477.41 178 156 135
267 224 481.435 181 155 138
268 224 479.391 185 159 144
183 223 476.5 216 185 167
184 223 477.461 209 180 162
185 223 483.732 204 177 158
186 223 480.705 192 165 146
187 223 484.183 196 171 149
188 223 480.623 178 155 137
189 223 482.821 168 146 123
190 223 480.051 160 139 120
191 223 471.432 156 137 120
192 223 481.248 138 120 106
217 223 459.265 131 108 102
218 223 462.732 133 109 105
219 223 470.213 132 111 106
220 223 473.078 136 115 110
221 223 473.019 141 122 116
222 223 476.209 144 125 119
223 223 481.299 140 120 113
224 223 479.775 151 124 115
225 223 480.698 155 127 115
226 223 479.516 166 138 124
227 223 479.269 166 140 123
228 223 477.759 168 143 123
229 223 475.815 169 147 126
230 223 480.678 163 141 120
231 223 481.019 165 144 123
232 223 483.916 161 141 132
233 223 480.94 160 139 120
234 223 477.676 161 138 122
235 223 477.906 158 135 121
236 223 479.853 159 133 120
237 223 479.426 166 140 127
238 223 479.979 170 142 130
239 223 482.605 162 143 128
240 223 480.828 165 137 123
241 223 479.305 174 147 130
242 223 477.618 190 165 145
243 223 477.564 188 166 145
244 223 475.968 200 178 155
245 223 474.973 214 194 169
246 223 480.211 206 186 161
247 223 484.085 208 185 171
248 223 488.035 206 183 169
249 223 490.71 212 189 175
250 223 492.242 205 182 168
251 223 491.487 207 181 164
252 223 489.371 219 194 172
253 223 486.63 215 189 166
254 223 485.695 213 187 160
263 223 556.502 204 176 164
282 223 547.245 101 83 71
185 222 498.495 210 182 158
186 222 493.559 207 181 156
187 222 490.224 204 178 153
188 222 491.299 201 177 151
189 222 492.047 199 175 149
190 222 491.448 206 185 158
191 222 487.139 196 171 149
192 222 484.34 197 176 155
193 222 483.461 186 165 146
194 222 485.209 179 158 139
195 222 483.486 176 157 140
196 222 480.381 173 154 137
197 222 481.658 162 143 128
198 222 484.471 146 128 114
199 222 490.745 142 120 107
201 222 483.03 138 121 111
202 222 483.097 142 128 115
203 222 484.229 143 129 116
204 222 482.666 144 131 115
205 222 485.371 147 134 115
206 222 485.726 151 139 117
207 222 483.916 155 140 119
208 222 482.754 159 140 123
209 222 482.395 161 140 123
210 222 482.754 167 144 128
211 222 483.102 170 147 133
212 222 483.686 172 145 134
213 222 482.91 180 153 144
214 222 484.584 182 153 145
215 222 485.637 192 161 156
216 222 485.842 204 173 168
217 222 484.694 217 188 182
218 222 485.215 220 191 187
219 222 486.73 216 188 184
220 222 487.239 215 187 183
221 222 486.671 210 185 180
222 222 485.783 203 178 173
223 222 486.118 195 166 160
224 222 486.802 204 170 161
225 222 488.589 195 176 159
226 222 489.187 209 190 173
227 222 488.901 207 188 173
228 222 489.357 208 189 174
229 222 487.664 209 180 162
230 222 490.115 203 181 168
231 222 487.811 207 182 162
232 222 487.509 215 189 172
233 222 486.908 222 199 181
234 222 486.409 240 214 199
235 222 486.594 251 225 210
236 222 486.97 250 227 211
237 222 486.149 255 232 219
238 222 485.277 255 238 225
239 222 485.33 255 234 220
240 222 483.662 255 232 217
241 222 485.807 255 228 213
242 222 487.887 248 217 199
243 222 485.931 247 218 200
244 222 487.294 239 211 190
245 222 484.395 244 218 195
246 222 490.128 240 211 195
247 222 493.067 241 209 194
254 222 563.636 255 222 213
255 222 560.576 254 222 209
256 222 556.056 241 210 190
257 222 552.029 240 209 189
282 222 548.452 122 100 86
190 221 494.787 214 189 159
191 221 498.424 223 199 171
192 221 493.865 222 196 173
193 221 490.393 221 196 174
194 221 491.137 216 191 169
195 221 490.798 210 185 163
196 221 489.494 206 184 163
197 221 489.927 202 179 161
198 221 491.224 191 170 153
199 221 492.69 183 162 145
200 221 493.47 177 158 143
201 221 492.184 182 163 148
202 221 491.461 182 165 149
203 221 491.9 181 164 148
204 221 490.966 182 167 148
205 221 491.792 189 174 153
206 221 492.029 193 178 155
207 221 491.172 195 179 156
208 221 490.983 197 179 159
209 221 492.725 199 176 160
210 221 492.725 199 176 160
211 221 491.171 207 181 166
212 221 491.085 214 188 175
213 221 491.194 222 194 183
214 221 493.233 219 189 179
215 221 494.721 228 203 183
216 221 493.935 235 202 193
217 221 493.491 242 209 200
218 221 493.674 243 213 205
219 221 493.933 245 215 207
220 221 494.355 247 219 208
221 221 494.573 246 218 206
222 221 491.84 244 215 207
223 221 489.437 244 214 204
224 221 491.786 237 203 193
225 221 494.823 227 206 187
226 221 497.826 240 219 200
227 221 497.183 238 217 200
228 221 498.76 247 224 208
229 221 496.977 242 216 201
230 221 500.105 246 220 207
231 221 494.67 243 215 203
232 221 495.871 250 222 211
233 221 494.088 251 221 211
234 221 493.567 255 230 216
235 221 494.458 255 231 220
236 221 495.667 255 230 219
237 221 495.683 255 226 215
238 221 496.657 255 224 213
239 221 501.777 255 224 213
240 221 506.751 255 226 215
249 221 583.141 255 227 222
251 221 582.781 254 218 218
252 221 582.196 254 216 215
253 221 578.885 251 213 210
254 221 569.761 252 215 207
270 221 544.821 239 204 184
271 221 537.386 234 195 178
282 221 549.628 143 117 102
196 220 500.752 216 183 166
197 220 500.555 217 184 167
198 220 500.136 214 181 166
199 220 499.452 209 184 164
200 220 499.53 210 187 169
201 220 499.769 211 188 172
202 220 499.21 209 188 171
203 220 500.465 211 184 173
204 220 498.542 211 193 173
205 220 499.019 215 197 175
206 220 497.236 218 202 179
207 220 498.298 220 204 181
208 220 496.872 222 204 184
209 220 503.197 231 211 200
210 220 507.057 241 222 207
211 220 499.519 240 217 201
236 220 566.047 255 247 233
237 220 570.089 255 249 235
238 220 569.91 255 247 233
239 220 566.248 255 250 234
240 220 563.537 255 243 226
241 220 569.89 255 246 230
242 220 575.248 255 232 218
243 220 560.408 255 234 222
245 220 503.479 255 218 203
247 220 496.762 255 227 204
282 220 545.574 143 119 107
244 219 491.321 251 208 192
245 219 488.306 244 201 184
246 219 495.31 234 191 172
247 219 496.388 239 196 177
248 219 497.206 229 188 168
249 219 502.49 224 183 161
250 219 511.712 221 178 161
252 219 528.938 223 182 160
282 218 523.879 168 139 131
243 217 533.115 114 75 58
246 217 556.01 89 50 33
247 217 564.344 88 51 33
282 217 525.676 181 153 142
241 216 618.772 195 163 140
243 216 526.145 88 53 33
244 216 522.992 85 48 30
246 216 568.284 89 56 37
247 216 562.915 86 55 35
248 216 550.913 72 41 23
281 216 578.305 73 48 41
282 216 530.504 160 132 120
241 215 619.194 204 174 150
242 215 600.515 104 76 55
282 215 588.831 108 74 72
241 214 629.291 196 168 146
243 211 542.33 55 36 19
242 210 593.871 98 75 59
242 209 603.082 94 75 60
242 208 627.45 103 84 69
243 208 659.046 54 38 25
242 207 642.997 115 96 81
243 207 667.982 56 40 27
242 206 664.636 124 105 90
242 205 680.546 126 107 90
242 204 685.904 127 108 91
275 203 631.907 123 103 94
276 203 600.667 115 94 77
275 202 629.772 140 118 105
274 201 576.5 76 54 41
276 201 640.794 139 117 103
274 200 582.326 99 71 59
276 200 655.612 144 122 108
241 199 697.108 231 200 180
274 199 590.109 113 81 68
276 199 667.435 167 146 129
241 198 708.651 239 208 190
274 198 599.372 114 78 66
276 198 685.949 161 138 120
276 197 694.839 152 131 110
274 196 639.522 97 65 50
274 195 632.734 82 53 35
275 193 696.755 134 106 85
279 193 753.1 77 63 52
279 192 763.879 84 68 53
242 191 634.581 147 135 113
280 191 734.648 71 58 42
242 190 648.161 154 142 120
280 190 734.892 77 60 52
242 189 657.219 158 146 124
276 189 699.537 122 97 77
277 188 652.256 201 172 156
243 187 760.945 70 55 36
277 187 651.591 165 138 121
243 186 762.597 75 60 39
242 185 769.957 152 134 112
243 185 765.18 77 62 41
243 184 774.831 86 69 49
278 184 814.37 88 58 58
243 183 788.228 95 78 58
280 183 781.16 176 137 130
242 182 816.924 169 147 124
243 182 790.992 98 80 60
280 182 799.4 166 129 120
242 181 814.679 183 161 138
243 181 783.569 89 73 48
280 181 826.147 126 96 85
242 180 819.38 202 177 157
243 180 780.521 93 79 53
242 179 823.826 217 192 172
243 179 787.605 90 76 50
282 179 792.035 149 116 107
242 178 830.755 224 198 181
243 178 794.039 85 70 47
283 178 816.725 145 109 87
242 177 848.577 223 197 180
284 177 840.685 123 92 71
288 171 762.682 175 150 130
245 170 865.439 45 39 25
286 170 820.834 111 79 64
288 170 777.514 179 150 132
288 169 791.452 171 140 122
289 169 891.385 115 98 70
288 168 836.056 171 140 119
288 167 848.462 171 140 119
287 166 919.945 158 128 117
244 165 877.36 50 35 16
244 164 897.639 57 50 32
244 163 912.767 63 56 38
288 161 872.568 141 115 92
288 159 852.65 140 109 91
288 158 854.961 134 105 89
242 157 943.988 223 203 179
242 156 959.184 244 224 200
243 156 949.516 150 139 117
243 155 953.56 155 144 122
244 150 993.871 42 36 20
244 149 996.461 44 38 22
244 148 995.051 45 40 21
292 148 994.975 125 92 77
234 147 1022.69 246 207 192
244 147 999.602 53 48 29
293 145 1046.27 118 86 75
243 142 1023.79 178 157 140
296 142 985.974 129 113 88
243 141 1030.85 165 142 128
295 141 937.023 148 132 107
295 140 932.097 128 112 89
241 138 998.176 130 101 69
243 138 1069.88 148 123 101
235 137 1055.18 219 187 166
236 137 1068.8 198 164 137
237 137 1083.82 171 136 108
243 137 1080.24 171 149 125
234 136 1064.18 247 216 198
235 136 1067.85 197 165 144
236 136 1090.38 170 136 109
237 136 1086.86 156 121 93
234 135 1077.92 218 187 169
235 135 1086.53 169 137 116
236 135 1092.22 160 126 99
242 134 1099.22 250 220 196
174 132 1071.29 255 237 208
298 132 1064.16 114 100 71
231 131 1117.77 218 189 175
260 131 1048.07 33 31 16
261 131 1052.68 38 36 23
262 131 1042.52 38 36 23
263 131 1037.44 34 32 19
298 131 1065.08 103 90 58
231 130 1124.12 189 161 149
247 130 1112.79 86 78 65
248 130 1114.06 44 43 23
298 130 1070.22 100 89 57
247 129 1123.94 156 144 130
260 129 1128.28 140 135 129
261 129 1132.86 133 128 122
305 129 1134.89 86 76 67
231 128 1015.72 179 159 134
268 128 1093.34 173 167 145
269 128 1092.08 174 168 146
295 128 1068.87 159 148 126
296 128 1082.93 156 146 121
306 128 1149.51 72 63 56
307 128 1008.05 65 69 52
276 127 1022.03 191 168 160
307 127 1009.89 69 73 56
308 127 1010.23 66 66 54
230 125 1168.78 193 170 152
231 125 1077.33 201 183 163
230 124 1173 193 172 155
231 124 1086.64 225 203 189
190 123 1119.32 230 196 169
230 123 1178.27 192 171 154
231 123 1093.21 240 217 203
190 122 1130.35 221 180 158
191 122 1147.76 214 179 151
229 122 1168.45 172 146 131
230 122 1178.92 194 171 155
231 122 1096.22 244 217 206
307 122 1091.98 163 141 127
228 121 1162.71 251 224 213
229 121 1174.5 177 151 138
230 121 1187.93 191 168 152
231 121 1095.3 239 212 201
192 120 1119.15 188 159 125
193 120 1120.62 205 176 144
194 120 1114.22 224 193 165
203 120 1174.46 192 165 146
204 120 1181.54 181 150 129
211 120 1090.11 135 115 91
229 120 1175.62 174 146 134
231 120 1101.89 233 206 195
192 119 1121.66 183 157 120
203 119 1177.52 79 53 30
219 119 1162.4 190 163 136
220 119 1147.71 186 163 122
231 119 1110.54 204 178 165
187 118 1084.22 192 176 142
202 118 1128.2 59 44 13
206 118 1144.22 85 52 19
209 118 1172.46 69 48 19
210 118 1161.73 63 49 20
214 118 1119.1 162 145 102
215 118 1110.75 172 145 115
216 118 1170.42 156 127 95
217 118 1179.04 164 135 103
219 118 1170.65 119 92 62
220 118 1152.99 121 100 55
221 118 1115.2 135 116 73
231 118 1110.81 177 154 138
187 117 1093 178 162 128
191 117 1217.58 157 135 111
198 117 1162.44 167 145 104
200 117 1109.16 100 81 51
201 117 1113.83 58 41 11
202 117 1133.61 62 56 22
206 117 1145.58 88 62 27
213 117 1167.44 98 90 44
214 117 1141.95 128 117 71
215 117 1115.64 143 121 84
221 117 1130.15 128 111 65
191 116 1214.3 177 156 129
198 116 1180.98 202 155 139
206 116 1135.37 128 106 69
213 116 1177.61 153 124 92
214 116 1164.24 144 138 88
218 116 1127.09 155 141 96
223 116 1161.79 162 144 106
231 116 1130.26 175 154 135
201 115 1211.8 177 165 141
204 115 1086.37 191 175 149
231 115 1132.85 183 165 145
200 114 1214.13 252 230 207
201 114 1215.88 252 236 211
207 114 1223.33 231 207 181
203 113 1181.64 240 218 195
204 113 1185.21 243 219 195
231 113 1153.47 210 194 171
315 112 1186.53 81 67 56
315 111 1192.53 83 69 60
233 108 1249.42 253 224 216
314 107 1241.2 119 110 103
227 106 1251.7 242 215 204
231 106 1226.94 198 167 139
314 106 1240.52 119 106 100
227 105 1254.6 234 206 194
234 105 1178.61 179 156 125
228 104 1273.42 171 144 127
230 104 1281.57 156 128 107
228 103 1278.47 171 145 128
317 101 1279.69 53 51 39
317 100 1287.65 53 51 39
315 99 1247.75 140 128 116
317 99 1291.44 48 48 38
314 98 1325.66 149 129 118
317 98 1296.66 50 47 38
314 97 1194.37 150 139 119
317 97 1302.6 51 51 43
314 96 1196.61 155 143 119
317 96 1304.62 59 62 55
315 95 1201.84 143 132 110
317 95 1310.54 63 66 59
315 94 1206.44 147 135 113
317 94 1314.3 73 74 66
315 93 1217.23 155 143 121
317 92 1299.44 117 112 92
318 92 1289.96 61 62 48
317 91 1301.62 136 130 106
317 90 1296.88 143 136 108
318 88 1247.63 137 128 111
320 85 1292.67 104 103 83
321 85 1304.6 65 69 52
322 85 1298.09 42 44 33
334 85 1395.39 77 62 57
321 84 1304.64 91 94 75
322 84 1314.44 47 47 37
334 84 1397.79 86 69 62
322 83 1330.87 68 69 55
334 83 1408.71 89 70 63
324 81 1306.43 52 48 45
324 80 1310.06 73 72 67
325 80 1314.15 43 42 38
325 79 1322.03 52 51 46
332 79 1400.04 52 44 25
333 79 1410.56 91 74 56
332 78 1409.41 52 43 26
333 78 1417.36 95 78 62
228 77 1311.2 121 111 75
333 77 1422.74 95 79 63
228 76 1316.4 125 112 77
326 76 1349.72 104 95 86
228 75 1323.93 127 117 81
326 75 1362.64 130 118 106
326 74 1370.76 143 127 112
327 74 1374.58 126 114 100
334 74 1425.65 99 73 60
312 73 1448.07 187 161 138
326 73 1375.78 156 139 123
327 73 1374.29 155 142 126
334 73 1430.24 92 66 53
309 72 1430.26 223 192 171
316 72 1401.38 209 187 164
317 72 1396.18 210 190 165
318 72 1394.33 199 182 154
319 72 1401.26 195 178 150
321 72 1428.34 190 169 140
324 72 1388.8 183 177 143
325 72 1378.71 197 174 158
326 72 1388 171 163 144
327 72 1381.07 169 153 138
328 72 1352.46 113 101 87
329 72 1484.92 80 80 68
330 72 1353.02 70 64 48
334 72 1438.59 84 62 49
338 72 1409 121 106 87
312 71 1419.78 177 149 125
328 71 1357.39 71 57 46
338 71 1411.12 131 115 99
271 70 1393.96 239 218 197
273 70 1387.85 250 230 206
289 70 1376.29 195 174 143
290 70 1373.65 188 167 138
291 70 1372.9 183 163 136
295 70 1421.6 166 140 125
296 70 1437.23 164 138 123
297 70 1443.29 150 127 111
338 70 1416.05 138 122 106
251 69 1470.81 245 222 208
252 69 1471 243 221 207
256 69 1405.28 244 219 197
257 69 1405.55 242 218 194
258 69 1412.43 237 212 190
261 69 1445.38 217 195 172
262 69 1445.27 222 200 177
263 69 1443.91 223 201 178
269 69 1500.43 179 153 130
271 69 1402.42 170 149 128
272 69 1399.75 179 158 137
273 69 1404.81 186 165 144
275 69 1358.15 146 118 104
276 69 1358.4 146 117 103
277 69 1359.32 143 112 94
278 69 1358.78 134 103 82
291 69 1378.22 88 73 50
230 68 1487 188 151 132
235 68 1486.4 190 161 143
241 68 1432.52 193 153 128
244 68 1454.72 211 176 148
251 68 1476.5 169 134 115
252 68 1482.51 171 138 121
253 68 1487.97 165 134 116
257 68 1410.04 135 107 86
261 68 1474.25 128 90 79
272 68 1433.22 100 73 54
273 68 1433.36 116 94 73
274 68 1430.91 57 38 21
337 68 1484.75 107 91 78
212 67 1453.73 250 222 201
214 67 1445.22 246 213 196
215 67 1456.72 235 202 185
217 67 1474.07 228 202 177
218 67 1472.25 230 204 179
