ply
format ascii 1.0
element vertex 590
property float x
property float y
property float z
property uchar red
property uchar green
property uchar blue
end_header
448 585 -1606.92 41 37 34
97 580 -1590.58 50 36 35
97 579 -1588.7 54 36 36
378 576 -1549.53 36 27 30
77 550 -1431.9 65 46 32
56 549 -1390.07 88 71 64
52 523 -1242.5 43 44 28
219 468 -931.072 155 147 145
219 467 -918.628 93 85 83
269 459 -963.35 92 70 59
271 446 -764.39 84 58 45
224 411 -555.16 98 73 66
96 406 -654.051 94 78 62
97 406 -516.844 90 73 53
99 406 -532.379 103 84 67
95 405 -656.319 101 83 63
96 405 -657.181 108 87 66
143 405 -639.651 133 97 85
145 405 -598.576 145 110 88
150 405 -528.072 146 109 101
40 404 -539.581 39 37 22
71 404 -644.122 102 84 70
72 404 -505.814 106 80 67
73 404 -511.113 100 81 66
140 404 -537.267 149 110 93
143 404 -637.324 145 105 97
145 404 -593.422 176 138 117
146 404 -505.72 154 117 111
44 403 -632.338 85 74 54
145 403 -634.338 106 70 48
39 386 -519.685 128 116 100
91 379 -391.853 120 84 60
96 379 -487.646 108 83 53
65 378 -411.958 113 87 64
66 378 -408.235 119 93 70
67 378 -404.85 118 92 69
74 378 -375.333 106 77 59
39 376 -379 151 133 119
40 376 -375.597 156 135 114
44 376 -347.582 136 110 93
45 376 -339.943 133 105 91
46 376 -345.239 122 93 77
50 376 -483.096 82 65 49
39 375 -369.133 71 57 44
38 374 -463.904 69 55 54
38 373 -323.328 60 53 47
38 361 -251.418 44 37 27
38 360 -381.936 36 34 22
38 359 -381.83 41 39 26
38 358 -376.288 48 45 30
38 357 -366.745 51 48 33
38 356 -358.576 50 47 32
38 355 -356.745 49 43 29
38 354 -205.944 51 41 32
38 351 -201.662 50 45 26
164 346 -273.918 98 84 84
164 345 -272.576 107 93 93
169 344 -260.876 75 68 58
169 343 -256.818 72 68 59
170 343 -256.538 85 78 72
168 342 -257.248 59 56 47
169 342 -253.768 72 65 57
170 342 -254.811 90 80 78
171 342 -262.369 98 87 85
167 341 -251.77 46 46 34
168 341 -253.126 57 54 45
169 341 -250.472 72 67 61
170 341 -251.483 83 75 72
171 341 -255.63 101 91 90
172 341 -250.454 104 90 90
173 341 -251.734 99 81 81
166 340 -241.272 38 35 26
167 340 -244.113 57 55 43
168 340 -246.343 62 58 49
169 340 -244.438 74 69 65
170 340 -245.382 83 75 73
171 340 -246.706 103 93 94
172 340 -247.549 107 92 95
173 340 -246.999 107 88 90
167 339 -238.039 43 43 31
168 339 -241.074 48 45 36
169 339 -239.818 56 51 47
170 339 -240.046 76 68 66
171 339 -241.207 96 86 87
172 339 -244.509 99 87 89
173 339 -244.293 112 96 97
174 339 -248.826 95 75 76
164 338 -244.088 113 98 95
171 338 -238.949 70 59 63
172 338 -241.024 82 70 74
173 338 -238.791 107 91 94
174 338 -242.686 94 74 76
164 337 -233.985 114 100 97
173 337 -232.848 87 73 73
167 335 -124.103 57 61 60
168 335 -125.076 80 85 79
163 334 -118.549 119 107 109
173 334 -141.497 75 70 66
172 333 -134.781 67 66 64
173 333 -133.184 100 94 94
171 332 -134.002 54 54 54
172 332 -124.508 96 94 97
173 332 -124.509 118 111 118
174 332 -118.537 109 92 100
153 331 -210.145 67 54 45
166 331 -117.775 45 45 33
168 331 -135.675 51 50 45
170 331 -134.923 71 69 72
171 331 -123.113 111 109 114
172 331 -116.322 123 120 127
173 331 -119.255 129 122 130
174 331 -116.87 108 95 105
153 330 -200.469 66 52 43
165 330 -99.9577 80 67 61
166 330 -109.318 76 65 61
167 330 -118.931 79 74 68
168 330 -112.513 97 92 89
169 330 -107.133 114 108 108
170 330 -109.927 122 113 116
171 330 -111.86 142 135 143
172 330 -111.121 128 121 129
173 330 -112.522 120 110 119
174 330 -109.483 113 96 104
153 329 -187.504 64 49 42
165 329 -100.223 79 64 59
166 329 -104 83 69 66
167 329 -104.972 95 87 84
168 329 -102.677 130 120 121
169 329 -99.9546 164 155 158
170 329 -102.497 149 140 145
171 329 -103.919 141 130 136
172 329 -105.711 123 113 121
173 329 -105.033 115 102 109
166 328 -99.7564 82 71 67
167 328 -101.299 91 79 79
168 328 -97.1824 111 99 103
169 328 -93.6334 137 124 131
170 328 -97.4713 126 113 122
171 328 -100.424 136 123 132
172 328 -100.617 129 116 123
173 328 -94.0353 111 96 99
166 327 -91.6496 82 64 64
167 327 -92 86 70 73
168 327 -90.6955 106 91 98
169 327 -85.8293 135 122 131
170 327 -89.576 126 113 122
171 327 -97.3435 135 120 127
172 327 -95.3198 125 109 112
166 326 -84.432 81 63 63
169 326 -74.7946 135 120 127
172 326 -84.8981 111 95 95
169 325 -76.0353 119 104 109
170 325 -75.4611 124 109 112
171 325 -82.7169 131 111 112
169 324 -78.6013 115 93 95
170 324 -74.8888 124 103 102
171 324 -77.9109 138 117 114
171 323 -71.2275 127 107 100
275 316 1.85777 70 66 65
279 310 -71.0271 57 58 53
273 304 -25.6691 120 108 112
56 299 82.7987 78 77 56
221 290 144.965 110 91 95
223 289 186 70 61 54
235 283 194.004 96 81 78
236 283 189.344 79 65 64
175 281 112.287 116 108 106
174 278 124.576 111 106 103
175 278 124.771 120 111 112
176 278 124.716 144 134 135
177 278 124.928 125 115 114
173 277 129.174 104 96 93
174 277 129.819 117 112 109
175 277 129.872 125 117 115
176 277 127.099 135 125 126
177 277 127.85 130 120 119
178 277 128.461 123 116 108
172 276 133.129 85 75 74
173 276 135.589 104 96 94
174 276 136.34 129 124 120
175 276 137.232 146 138 136
176 276 136.475 154 142 144
177 276 136.141 146 134 136
178 276 134.434 130 121 116
179 276 133.301 123 116 108
180 276 131.44 121 114 108
172 275 139.394 90 78 78
173 275 141.225 96 88 86
174 275 142.111 116 111 107
175 275 142.915 128 120 118
176 275 144.285 150 138 140
177 275 143.73 151 139 141
178 275 141.768 140 130 128
179 275 141.313 131 124 118
180 275 139.933 122 114 111
172 274 143.278 88 76 78
173 274 144.39 79 69 68
174 274 145.209 78 70 67
176 274 148.684 81 66 71
177 274 149.117 93 78 83
178 274 147.838 116 104 104
179 274 148.758 134 124 122
180 274 148.732 128 118 116
172 273 146.889 79 69 70
173 273 149.877 66 61 58
178 273 153.8 80 69 67
179 273 155.112 108 98 96
180 273 155.756 118 108 106
181 273 153.627 123 109 108
61 272 164.06 156 149 120
173 272 153.503 58 57 52
180 272 164.668 97 86 80
214 272 257.783 145 115 125
215 272 272.945 134 104 114
216 272 283.767 116 86 96
61 271 175.593 172 163 132
61 270 179.058 186 172 143
167 270 290.043 131 114 104
175 270 174.21 71 67 56
176 270 176.447 112 108 99
176 269 181.312 110 107 98
177 269 178.181 71 68 59
180 268 262.709 93 78 73
178 267 253.744 68 70 57
179 267 263.719 83 83 73
180 267 269.749 108 92 92
181 267 270.543 106 86 85
177 266 262.31 74 76 65
178 266 266.614 91 91 83
179 266 275.819 107 95 95
180 266 278.047 121 102 104
181 266 277.983 108 86 88
176 265 275.255 81 78 71
177 265 273.741 101 101 93
178 265 279.511 112 111 106
179 265 286.113 127 115 117
180 265 285.791 121 102 106
171 264 223.025 144 128 129
176 264 281.993 80 75 71
177 264 284.1 101 96 93
178 264 288.949 117 107 108
179 264 293.212 123 108 113
180 264 289.119 111 92 98
171 263 228.99 138 122 123
173 263 303.963 95 88 82
177 263 290.668 90 82 80
178 263 292.879 101 91 92
179 263 297.123 107 92 95
68 262 288.107 132 126 102
173 262 307.122 105 96 91
66 261 219.129 201 178 162
173 261 310.081 112 103 98
66 260 227.89 219 192 175
67 260 229.978 207 184 168
44 241 361.909 218 193 173
45 241 368.742 214 187 168
131 230 431.445 196 176 169
132 230 427.366 190 173 165
133 230 419.98 183 169 158
147 228 437.577 220 190 179
148 228 443.001 212 184 172
212 228 437.385 158 136 122
220 228 550.806 98 79 73
221 228 546.877 96 77 71
222 228 549.153 91 74 67
223 228 405.128 90 77 71
217 226 434.929 174 141 126
196 224 540.965 104 85 70
191 222 462.591 150 129 108
192 222 464.475 160 135 115
194 222 465.939 192 167 147
195 222 452.294 208 182 165
195 221 455.467 248 219 201
172 218 493.318 195 179 164
231 214 622.31 114 92 68
232 214 580.292 105 78 49
231 213 631.109 121 100 73
235 209 633.379 121 99 78
232 207 673.461 198 163 143
234 207 644.403 131 109 86
232 206 678.568 197 162 142
233 206 673.22 144 116 94
232 202 694.225 138 107 87
233 202 677.142 100 73 54
231 201 692.581 198 163 143
232 201 701.352 140 109 89
233 201 684.217 103 76 59
230 198 705.367 192 158 133
231 198 684.778 129 98 77
230 197 713 189 157 132
231 195 706.454 86 58 37
237 193 697.347 78 67 47
238 191 639.615 157 126 106
239 191 635.042 166 130 114
239 190 647.918 167 134 117
233 186 698.129 109 86 52
233 185 698.862 133 113 76
245 170 778.422 95 83 71
245 169 806 92 75 65
245 168 820.72 117 101 88
255 154 993.83 107 92 73
255 153 854.767 125 115 90
180 150 1008.72 226 199 172
260 144 943.172 119 107 91
252 142 1024.63 117 98 65
253 142 1014.21 131 116 75
251 141 1055.4 125 105 78
252 141 1053 120 104 71
250 139 942.584 130 111 79
251 139 940.639 133 118 85
250 138 950.434 153 134 101
251 138 1087.88 176 152 128
249 137 1052.05 191 159 134
264 137 972.337 153 152 122
264 136 979.231 174 169 140
265 136 984.058 107 107 83
266 136 1071.14 94 88 76
204 135 965.848 160 133 106
204 134 971.285 167 144 112
208 134 1060.03 156 135 104
221 134 998.546 120 100 73
222 134 1026.49 59 44 13
264 134 1013.22 193 178 149
221 133 1004.43 107 92 63
223 133 1062.46 71 60 30
225 133 1103.76 61 45 19
249 133 1060.69 109 88 61
250 133 1086.94 156 134 111
216 132 1087.9 152 132 99
217 132 1085.7 146 123 89
219 132 985.645 162 146 110
221 132 1018.1 121 110 78
222 132 1026.45 71 60 32
223 132 1066.67 68 62 28
233 132 1043.64 79 44 16
236 132 1044.42 119 93 66
237 132 1038.85 129 106 75
217 131 1090.09 162 146 113
237 131 1051.22 107 91 58
244 131 1012.69 108 78 44
245 131 1015.08 102 72 38
248 131 1127.63 217 196 177
222 130 1124.42 205 194 162
249 130 1102.85 118 97 80
251 130 1013.47 125 106 73
223 129 1125.73 193 183 148
230 129 1097.55 192 180 154
250 129 1082.5 118 107 79
250 128 1094.57 104 92 66
250 127 1084.13 110 96 70
271 124 1084.41 66 59 40
271 123 1092.39 92 81 61
249 121 1169.27 213 180 165
272 121 1068.42 102 88 77
249 120 1168.41 223 190 175
250 120 1076.24 121 98 80
272 120 1071.06 116 100 87
249 119 1171.56 229 193 179
250 119 1080.73 138 115 99
249 118 1175.29 233 197 183
278 117 1217.51 72 73 55
278 114 1235.49 90 89 68
276 110 1123.37 189 170 153
279 110 1195.58 56 60 35
253 109 1154.06 130 111 78
278 109 1120.99 121 112 95
279 109 1150.34 79 72 54
280 109 1155.71 73 67 51
281 109 1149.06 99 96 81
252 108 1219.09 147 131 105
279 108 1167.88 155 148 129
281 108 1139.49 134 129 110
252 107 1231.78 160 146 117
285 106 1250.38 94 73 68
253 105 1213.72 122 105 75
253 104 1219.98 125 105 78
191 101 1283.13 141 107 72
202 101 1273.29 136 100 78
205 101 1234.8 153 115 92
216 101 1223.99 225 198 177
188 100 1203.75 125 109 84
219 100 1211.23 141 102 85
225 100 1286.93 178 148 122
226 100 1282.66 184 154 128
233 100 1288.92 222 196 173
253 100 1233.9 161 139 115
188 99 1210.58 136 124 98
189 99 1300.46 137 114 83
228 99 1281.42 119 89 63
229 99 1287.83 123 93 69
235 99 1322.95 138 107 86
254 99 1208.33 138 113 91
255 99 1217.93 160 132 111
256 99 1234.44 189 159 133
257 99 1246.28 207 175 154
258 99 1254.08 215 184 164
263 99 1278.42 175 156 126
264 99 1280.85 174 153 122
288 99 1322.91 204 188 173
290 99 1206.41 76 73 54
231 98 1325.8 109 81 57
235 98 1328.81 100 70 46
237 98 1235.47 95 63 42
257 98 1325.02 146 110 86
288 98 1330.66 228 209 194
289 98 1320.01 175 157 145
290 98 1221.19 91 88 69
236 97 1314.1 100 69 48
250 97 1335.41 92 68 42
257 97 1324.25 99 67 42
258 97 1319.61 91 61 35
261 97 1222.14 88 65 33
262 97 1216.58 87 67 34
263 97 1212.84 94 75 42
264 97 1215.69 100 81 51
266 97 1314 88 63 33
267 97 1308.61 111 81 55
268 97 1316.14 114 82 59
269 97 1322.76 118 86 63
274 97 1219.2 139 112 95
279 97 1269.79 186 159 138
280 97 1276.94 195 167 143
288 97 1196.06 199 184 165
289 97 1326.75 158 138 127
290 97 1240.95 100 95 75
177 95 1290.69 111 97 60
184 95 1240.59 163 133 109
187 95 1335.45 249 220 202
176 94 1296.76 119 103 70
177 94 1304.7 121 107 72
188 93 1282.51 222 194 170
189 93 1226.82 145 123 102
190 93 1214.09 126 106 79
189 92 1256.69 151 126 106
168 90 1295.45 213 197 184
170 90 1312.08 129 108 79
170 89 1349.53 123 99 75
159 88 1334.98 193 162 141
168 88 1360.14 134 108 93
218 88 1264.75 50 50 22
223 88 1330.78 47 34 18
242 87 1389.2 61 48 29
163 86 1396.26 164 140 114
164 86 1398.8 165 140 118
203 86 1375.71 85 60 40
204 86 1269.68 123 94 76
230 86 1346.04 161 153 132
233 86 1328.21 126 119 100
252 86 1263.47 51 37 28
253 86 1271.45 60 41 34
254 86 1304.2 47 48 34
310 86 1280.1 132 123 106
311 86 1269.13 144 132 116
312 86 1270.03 118 106 90
163 85 1387.61 183 159 131
204 85 1269.52 108 80 59
244 85 1319.55 167 154 137
255 85 1401.95 54 52 31
270 85 1380.66 38 38 26
309 85 1304.94 130 122 103
310 85 1317.01 160 147 128
163 84 1394.08 166 145 116
204 84 1413.46 101 69 54
252 84 1414.99 227 216 196
253 84 1414.53 212 204 181
256 84 1378.42 115 110 88
308 84 1411.27 73 60 43
256 83 1382.31 137 131 105
257 83 1361.51 112 100 84
285 83 1309.5 154 147 137
286 83 1308.62 145 138 128
306 83 1347.24 90 79 57
257 82 1336.55 112 97 78
295 82 1377.4 236 220 204
296 82 1380.52 235 223 207
305 82 1281.62 215 214 196
206 79 1313.26 244 216 194
176 78 1373.84 162 132 122
177 78 1387.62 98 75 61
205 78 1406.96 102 76 59
206 78 1318.84 233 205 184
205 77 1412.21 94 68 51
172 76 1350.49 100 81 67
173 76 1333.21 109 82 73
205 76 1420.05 84 58 41
308 75 1439.74 175 159 136
157 74 1338.85 142 126 103
312 71 1377.13 141 128 109
312 70 1373.88 165 149 133
313 70 1377.74 140 124 108
307 69 1470.28 95 75 51
311 69 1483.77 97 82 61
312 69 1470.26 77 66 48
168 68 1476.63 121 114 108
258 68 1407.91 128 110 86
287 68 1488.1 181 159 136
295 68 1366.6 112 110 72
303 68 1363.21 71 73 34
168 67 1466.65 134 124 97
285 67 1407.9 132 122 95
154 66 1403.18 147 129 117
165 66 1510.35 120 110 100
169 66 1381.63 84 72 56
273 66 1521.51 81 59 36
282 66 1425.73 163 148 109
322 66 1394.38 74 75 70
154 65 1411.23 148 129 115
167 65 1507.82 139 131 120
169 65 1389.12 95 79 63
256 65 1513.3 198 177 148
261 65 1390.28 170 142 130
266 65 1410.02 168 140 119
267 65 1419.56 165 141 117
272 65 1509.35 90 70 46
285 65 1447.61 62 70 21
322 65 1399.68 83 80 75
169 64 1400.15 107 89 69
170 64 1397.09 67 58 41
254 64 1406.59 198 173 151
255 64 1414.13 184 162 141
256 64 1485.52 114 93 72
257 64 1475.73 102 81 60
261 64 1520.31 100 62 41
272 64 1525.97 70 58 32
322 64 1395.52 99 95 86
170 63 1416.27 75 63 47
255 63 1409.87 144 123 104
322 63 1396.44 89 85 74
170 62 1433.94 65 53 41
256 62 1475.14 56 38 18
169 61 1513.69 83 74 67
255 61 1427.94 136 118 98
255 60 1445.18 138 120 100
168 59 1563.29 127 113 110
316 59 1498.73 66 74 50
135 58 1552.86 227 194 187
168 58 1425.73 135 116 99
277 58 1442.28 90 94 69
301 58 1539.65 100 104 81
135 57 1561.84 223 199 195
255 57 1466.83 167 148 131
256 57 1461.88 124 117 98
277 57 1444.04 67 71 48
278 57 1445.72 64 66 44
208 56 1454.2 67 52 33
260 56 1471.28 153 148 128
263 56 1551.47 223 210 201
265 56 1435.1 211 205 191
266 56 1444.89 213 207 193
273 56 1548.42 112 111 91
169 55 1558.51 123 110 102
274 55 1461.17 174 162 148
275 55 1464.25 183 174 157
278 55 1450.45 181 174 158
282 55 1555.24 75 78 51
163 54 1538.95 78 66 52
169 54 1576.58 108 93 88
170 54 1583.63 67 59 57
282 54 1556.9 120 115 95
276 53 1517.09 216 189 160
282 53 1552.54 117 109 90
381 53 1470.12 39 48 45
209 52 1565.33 91 61 51
295 52 1568.74 38 46 23
343 52 1482.12 62 65 58
264 51 1560.67 148 127 96
274 51 1609.11 114 99 70
291 51 1572.65 104 101 82
292 51 1585.17 107 106 88
293 51 1601.94 105 104 86
294 51 1465.96 94 98 75
295 51 1472.95 105 109 82
306 51 1542 77 81 64
320 51 1596.23 101 95 83
186 50 1486.14 76 78 65
209 50 1598.86 99 69 58
210 50 1485.56 157 133 123
275 50 1507.15 113 86 65
307 50 1587.95 42 35 27
347 50 1609.97 74 74 72
209 49 1589.86 88 60 46
268 49 1601.18 171 151 127
274 49 1493.35 121 98 80
345 49 1615.87 87 82 78
346 49 1622.36 85 81 78
347 49 1624.65 72 72 70
355 49 1521.58 81 90 73
345 48 1623.4 91 87 84
346 48 1625.58 86 85 83
210 47 1603.53 82 66 53
