ply
format ascii 1.0
element vertex 1717
property float x
property float y
property float z
property uchar red
property uchar green
property uchar blue
end_header
77 345 -324.824 166 122 93
78 345 -324.625 160 119 89
79 345 -324.141 166 125 93
80 345 -324.048 159 121 84
81 345 -321.014 130 92 55
82 345 -318.532 112 74 37
85 345 -395.002 148 83 65
86 345 -401.523 187 97 86
87 345 -399.332 206 117 101
88 345 -397.928 228 128 113
89 345 -398.621 237 133 120
90 345 -400.181 241 153 133
91 345 -399.907 246 148 135
92 345 -399.671 254 166 154
93 345 -399.213 255 183 170
94 345 -399.891 255 192 180
95 345 -400.037 253 201 177
96 345 -399.543 255 209 199
97 345 -399.591 255 216 206
98 345 -399.699 255 220 211
99 345 -399.934 255 222 213
100 345 -400.033 255 227 216
101 345 -399.935 255 228 221
102 345 -399.904 254 229 222
103 345 -399.934 253 231 220
104 345 -400 254 232 219
105 345 -400.032 255 231 219
106 345 -399.967 254 233 216
107 345 -399.967 255 232 216
108 345 -399.968 255 232 216
109 345 -399.935 255 232 216
110 345 -399.869 253 230 216
111 345 -399.901 252 229 215
112 345 -399.77 253 230 216
113 345 -399.869 255 229 216
114 345 -399.87 255 229 216
115 345 -399.903 254 227 216
116 345 -399.967 254 226 215
117 345 -399.934 254 226 215
118 345 -399.836 254 224 214
119 345 -399.735 255 222 213
120 345 -399.865 255 218 209
121 345 -399.387 255 218 209
122 345 -399.552 255 215 205
123 345 -399.649 255 213 204
124 345 -399.543 255 213 202
125 345 -399.614 255 212 199
126 345 -399.788 255 210 195
127 345 -399.643 255 208 194
128 345 -399.822 255 206 192
129 345 -399.857 255 203 192
130 345 -399.821 255 203 190
131 345 -399.82 255 203 190
132 345 -399.853 254 202 188
133 345 -399.74 254 202 188
134 345 -399.852 254 201 185
135 345 -399.963 253 200 184
136 345 -399.926 255 199 182
137 345 -399.925 255 199 182
138 345 -399.925 255 199 182
139 345 -400.186 255 199 182
140 345 -400.262 255 198 182
141 345 -400.261 255 198 182
142 345 -399.779 255 196 183
143 345 -399.628 255 195 182
144 345 -399.74 255 196 183
145 345 -399.962 255 193 180
146 345 -399.81 255 193 182
147 345 -399.734 255 194 183
148 345 -399.962 254 192 181
149 345 -399.773 255 193 182
150 345 -399.736 254 194 183
151 345 -400.038 254 196 176
152 345 -399.813 254 196 184
153 345 -399.739 255 198 186
154 345 -399.73 255 200 189
155 345 -399.806 255 201 190
156 345 -399.762 255 202 192
157 345 -399.798 255 203 192
158 345 -399.842 255 202 194
159 345 -399.88 255 200 193
160 345 -399.876 255 198 187
161 345 -399.874 255 197 186
162 345 -399.698 255 193 182
163 345 -399.2 254 188 176
164 345 -397.495 255 185 173
165 345 -398.52 243 165 153
166 345 -399.253 229 145 134
167 345 -398.333 216 128 118
168 345 -396.826 201 111 102
169 345 -397.343 187 94 86
170 345 -398.907 174 81 73
171 345 -397.55 176 83 75
172 345 -397.284 180 87 79
173 345 -399.068 178 88 79
174 345 -399.436 180 90 81
175 345 -399.266 186 98 86
176 345 -400.08 187 100 81
177 345 -400.153 190 103 86
178 345 -399.232 186 102 92
179 345 -399.608 185 98 89
180 345 -398.299 190 102 92
181 345 -395.262 195 108 98
182 345 -398.156 150 73 65
183 345 -396.938 115 48 40
193 345 -248.502 191 87 76
194 345 -250.181 193 95 86
195 345 -250.873 206 105 93
196 345 -251.574 216 119 103
197 345 -250.521 227 130 113
198 345 -248.662 242 140 128
199 345 -249.487 245 142 135
200 345 -249.586 249 145 142
201 345 -249.739 251 146 143
202 345 -249.446 252 147 144
203 345 -249.129 253 145 142
204 345 -249.173 253 145 142
205 345 -248.638 255 147 144
206 345 -248.06 255 145 144
207 345 -247.443 251 143 141
208 345 -248.294 244 139 135
209 345 -250 240 138 133
210 345 -249.798 238 136 131
211 345 -248.29 234 135 130
212 345 -249.016 231 132 127
213 345 -251.049 232 136 124
214 345 -250.198 230 137 122
215 345 -247.55 228 134 126
216 345 -247.547 229 135 127
217 345 -247.222 230 136 126
218 345 -247.667 230 136 126
219 345 -247.667 231 137 127
220 345 -246.877 233 139 129
221 345 -246.578 234 140 132
222 345 -244.82 238 141 135
223 345 -244.428 239 142 136
224 345 -241.228 241 139 134
235 345 -248.559 235 137 124
236 345 -249.13 234 137 121
237 345 -250.449 232 136 120
238 345 -251.018 233 137 121
239 345 -248.81 234 138 122
240 345 -248.01 232 139 122
241 345 -249.688 228 135 117
242 345 -249.538 230 135 115
243 345 -249.44 228 131 114
244 345 -249.366 229 128 118
245 345 -249.449 229 128 120
246 345 -250.39 222 134 110
247 345 -249.817 224 122 117
248 345 -249.18 222 124 111
249 345 -249.812 218 122 106
250 345 -250.124 217 121 105
251 345 -250 214 120 108
252 345 -249.646 213 121 110
253 345 -250.519 215 119 107
254 345 -251.141 213 120 105
255 345 -251.217 212 119 104
256 345 -250.654 204 112 99
257 345 -250.104 203 111 98
258 345 -250.435 200 108 97
259 345 -251.203 194 104 93
260 345 -251.753 190 100 91
261 345 -251.834 184 94 86
262 345 -251.18 178 88 80
263 345 -250.307 174 84 76
264 345 -249.684 172 83 77
265 345 -247.631 169 80 72
269 345 -331.985 142 105 76
270 345 -332.362 143 106 79
271 345 -327.042 150 115 85
272 345 -327.424 156 127 87
273 345 -326.536 155 128 85
274 345 -325.56 160 137 95
275 345 -325.079 161 136 96
276 345 -324.925 171 137 102
277 345 -325.22 175 138 109
278 345 -325.604 174 137 111
279 345 -325.453 172 137 115
280 345 -325.412 179 151 130
281 345 -325.548 138 112 95
282 345 -324.441 121 98 84
283 345 -324.743 98 76 63
286 345 -251.06 87 38 33
288 345 -254.341 85 37 35
289 345 -253.728 85 37 35
290 345 -251.635 80 32 30
291 345 -248.717 68 27 31
341 345 -174.299 56 38 28
342 345 -173.166 60 40 33
344 345 -257.676 119 69 60
345 345 -255.115 149 101 89
346 345 -247.312 133 93 93
347 345 -247.885 101 71 69
56 344 -395.408 125 89 63
57 344 -394.138 147 107 82
58 344 -395.506 165 121 94
59 344 -393.644 172 131 111
60 344 -392.17 199 163 141
61 344 -389.374 166 135 114
62 344 -389.888 126 104 83
65 344 -329.535 85 61 27
66 344 -327.024 95 73 36
67 344 -325.239 102 80 41
68 344 -323.419 105 83 42
69 344 -320.678 113 90 48
70 344 -319.887 123 99 55
71 344 -319 137 110 67
72 344 -318.808 151 119 78
73 344 -318.688 153 118 80
74 344 -318.709 164 124 89
75 344 -319.157 181 138 106
76 344 -318.828 169 125 96
77 344 -318.388 176 132 103
78 344 -318.626 163 122 94
79 344 -319.816 145 106 75
80 344 -320.46 120 88 50
81 344 -310.403 95 65 27
84 344 -400.234 136 57 52
85 344 -396.158 163 76 69
86 344 -397.441 197 107 96
87 344 -394.386 209 120 104
88 344 -392.019 229 134 114
89 344 -393.586 231 132 113
90 344 -393.723 248 146 131
91 344 -394.845 246 158 138
92 344 -393.122 254 166 154
93 344 -393.722 255 177 164
94 344 -393.625 255 191 177
95 344 -393.63 255 200 187
96 344 -393.676 255 209 196
97 344 -393.757 255 216 204
98 344 -393.766 255 221 212
99 344 -393.934 255 223 214
100 344 -393.967 255 226 218
101 344 -393.968 255 230 223
102 344 -394.064 255 233 222
103 344 -393.902 254 231 223
104 344 -393.837 255 233 222
105 344 -394.065 255 233 222
106 344 -394.097 255 233 222
107 344 -393.968 255 234 217
108 344 -393.935 255 233 219
109 344 -394 255 232 218
110 344 -393.935 254 230 218
111 344 -393.74 255 231 219
112 344 -393.772 255 231 219
113 344 -393.772 254 230 218
114 344 -393.869 253 229 217
115 344 -393.806 255 228 219
116 344 -393.741 255 228 220
117 344 -393.772 255 227 219
118 344 -393.672 255 226 218
119 344 -393.636 255 224 217
120 344 -393.765 254 220 211
121 344 -393.457 255 218 210
122 344 -393.486 254 216 207
123 344 -393.654 254 214 204
124 344 -393.651 255 212 201
125 344 -393.437 255 212 199
126 344 -393.364 255 210 197
127 344 -393.608 255 208 194
128 344 -393.752 255 206 192
129 344 -393.786 255 204 191
130 344 -393.678 255 204 191
131 344 -393.639 255 203 190
132 344 -393.745 254 202 188
133 344 -393.742 254 202 188
134 344 -393.705 255 202 186
135 344 -393.926 254 201 185
136 344 -393.963 255 199 182
137 344 -394.074 255 197 183
138 344 -393.963 255 198 181
139 344 -394.15 255 197 183
140 344 -394.185 255 197 183
141 344 -394.074 255 197 183
142 344 -393.852 255 196 183
143 344 -393.777 255 195 182
144 344 -393.889 255 194 181
145 344 -393.7 255 194 181
146 344 -393.628 255 194 183
147 344 -393.669 255 195 184
148 344 -393.667 255 193 184
149 344 -393.776 254 191 182
150 344 -393.963 252 192 181
151 344 -393.82 254 194 183
152 344 -393.782 254 196 184
153 344 -393.82 255 198 186
154 344 -393.676 255 200 189
155 344 -393.675 255 200 189
156 344 -393.749 255 201 191
157 344 -393.894 255 200 193
158 344 -393.716 254 201 195
159 344 -393.716 255 200 193
160 344 -393.78 255 199 188
161 344 -393.883 255 197 183
162 344 -394.041 255 195 181
163 344 -393.304 255 189 173
164 344 -391.82 246 173 158
165 344 -392.678 230 151 136
166 344 -394.191 218 132 115
167 344 -393.846 203 115 103
168 344 -394.345 190 108 87
169 344 -392.918 178 85 77
170 344 -390.358 175 81 73
171 344 -390.746 174 79 73
172 344 -391.24 175 80 74
173 344 -391.537 180 85 79
174 344 -392.486 182 87 81
175 344 -392.874 185 95 86
176 344 -394.084 186 99 80
177 344 -393.918 183 101 90
178 344 -393.469 186 101 96
179 344 -393.618 187 98 94
180 344 -393.44 187 97 89
181 344 -391.185 192 105 98
182 344 -391.287 150 73 67
183 344 -389.03 113 48 42
188 344 -249.59 126 53 38
189 344 -249.304 138 58 47
190 344 -245.568 147 60 51
191 344 -243.677 156 63 58
192 344 -242.756 172 73 67
193 344 -240.719 186 83 76
194 344 -242.86 195 93 81
195 344 -244.438 198 100 89
196 344 -243.861 209 107 92
197 344 -242.755 223 121 107
198 344 -244.102 226 131 111
199 344 -241.849 242 137 133
200 344 -243.066 247 141 141
201 344 -243.521 249 141 141
202 344 -243.75 249 141 141
203 344 -243.913 250 140 139
204 344 -243.463 251 142 139
205 344 -242.239 251 142 139
206 344 -241.74 249 139 138
207 344 -242.489 245 137 135
208 344 -243.733 239 136 131
209 344 -244.311 236 138 129
210 344 -245.4 235 137 128
211 344 -245.515 233 135 126
212 344 -244.835 232 135 126
213 344 -243.197 230 136 128
214 344 -243.205 229 135 127
215 344 -243.587 228 136 125
216 344 -241.343 231 139 128
217 344 -243.746 229 137 124
218 344 -244.725 232 141 123
219 344 -243.337 233 141 130
220 344 -240.191 236 142 132
221 344 -240.542 236 142 134
222 344 -241.388 237 142 136
223 344 -239.808 240 143 137
224 344 -236.292 243 141 137
225 344 -239.406 238 136 131
226 344 -238.978 235 136 130
227 344 -239.342 236 138 129
228 344 -241.393 235 139 127
229 344 -241.326 236 140 126
236 344 -243.016 236 135 123
237 344 -245.194 233 137 123
238 344 -243.8 236 135 123
239 344 -244.158 232 139 122
240 344 -242.659 232 136 120
241 344 -244 227 134 117
242 344 -243.538 229 134 116
243 344 -243.117 231 134 117
244 344 -243.648 230 129 117
245 344 -243.612 229 128 120
246 344 -243.488 228 125 120
247 344 -243.804 223 121 116
248 344 -243.364 223 125 112
249 344 -243.939 220 123 107
250 344 -244.54 221 123 110
251 344 -244.118 219 121 110
252 344 -244 215 121 111
253 344 -244.674 219 121 110
254 344 -244.938 216 120 108
255 344 -245.117 215 119 107
256 344 -244.709 211 117 105
257 344 -244.315 205 113 100
258 344 -244.486 199 110 96
259 344 -245.332 197 109 97
260 344 -244.964 188 100 88
261 344 -246.15 186 98 88
262 344 -245.846 182 94 84
263 344 -244.762 178 90 80
264 344 -243.426 173 82 77
265 344 -243.227 170 80 72
266 344 -242.852 165 77 67
272 344 -322.017 148 116 77
273 344 -319.748 155 126 84
274 344 -319.692 160 132 92
275 344 -318.921 167 137 99
276 344 -317.64 179 140 107
277 344 -319.072 180 139 109
278 344 -320.579 177 137 111
279 344 -319.472 170 134 112
280 344 -319.414 162 134 113
281 344 -319.377 131 106 86
282 344 -318.102 120 97 81
283 344 -317.012 100 78 64
287 344 -244.77 88 39 34
288 344 -245.377 86 38 34
289 344 -246.597 86 38 36
290 344 -243.828 77 36 34
291 344 -239.906 77 35 36
292 344 -237.873 79 33 36
293 344 -236.231 82 32 35
341 344 -167.391 53 35 25
342 344 -167.507 56 36 29
343 344 -168.749 59 35 31
345 344 -255.859 132 84 74
346 344 -248.908 150 102 88
347 344 -243.794 131 93 92
348 344 -244.291 110 81 63
349 344 -238.292 70 52 50
56 343 -391.137 140 104 78
57 343 -389.093 165 125 100
58 343 -387.329 173 131 109
59 343 -384.73 181 140 118
60 343 -385.181 195 160 138
61 343 -382.469 144 118 95
64 343 -311.913 88 62 27
65 343 -317.539 87 61 26
66 343 -316.6 97 73 35
67 343 -314.805 111 89 48
68 343 -313.892 119 97 56
69 343 -313.174 125 104 61
70 343 -313.074 135 112 68
71 343 -312.936 150 123 80
72 343 -313.232 162 130 89
73 343 -313 173 139 101
74 343 -312.95 182 144 108
75 343 -313.324 176 135 103
76 343 -312.709 143 102 72
77 343 -312.082 133 92 64
78 343 -313.104 120 81 52
79 343 -315.574 105 70 40
80 343 -320.263 81 55 20
82 343 -382.82 96 50 37
83 343 -384.374 115 62 48
84 343 -384.739 128 67 49
85 343 -390.326 169 82 73
86 343 -391.192 202 114 100
87 343 -387.427 214 130 106
88 343 -385.544 230 140 116
89 343 -387.949 230 134 112
90 343 -387.955 247 148 129
91 343 -388.71 246 158 136
92 343 -387.419 253 165 151
93 343 -387.64 255 176 161
94 343 -387.469 255 191 175
95 343 -387.888 255 199 182
96 343 -387.855 255 209 193
97 343 -387.79 254 217 201
98 343 -387.831 255 221 209
99 343 -388 255 223 214
100 343 -388.097 255 229 220
101 343 -388.159 255 233 225
102 343 -388.032 254 234 223
103 343 -388.032 252 234 222
104 343 -388 253 233 222
105 343 -388.221 255 235 224
106 343 -388.251 255 235 224
107 343 -388.032 253 233 222
108 343 -387.937 254 235 220
109 343 -388.031 254 235 220
110 343 -387.938 254 232 219
111 343 -387.72 255 233 222
112 343 -387.812 254 232 221
113 343 -387.811 254 232 221
114 343 -387.874 253 230 222
115 343 -387.874 254 229 222
116 343 -387.81 255 229 222
117 343 -387.745 255 227 223
118 343 -387.58 255 225 222
119 343 -387.611 255 224 219
120 343 -387.704 254 221 214
121 343 -387.602 254 220 211
122 343 -387.499 254 217 208
123 343 -387.663 253 215 206
124 343 -387.519 255 213 204
125 343 -387.478 255 212 201
126 343 -387.544 255 210 197
127 343 -387.648 255 208 196
128 343 -387.752 255 206 192
129 343 -387.857 255 204 191
130 343 -387.821 255 203 190
131 343 -387.785 255 203 189
132 343 -387.856 254 202 188
133 343 -387.781 254 203 186
134 343 -387.817 255 202 186
135 343 -387.927 254 201 185
136 343 -387.891 255 200 183
137 343 -387.853 255 199 182
138 343 -387.963 255 198 181
139 343 -388.149 255 197 183
140 343 -388.185 255 197 183
141 343 -388.074 255 197 183
142 343 -388 255 195 182
143 343 -387.926 255 194 181
144 343 -387.854 255 195 182
145 343 -387.703 255 194 181
146 343 -387.631 255 194 183
147 343 -387.743 255 194 183
148 343 -387.67 255 193 184
149 343 -387.78 254 191 182
150 343 -387.964 252 192 181
151 343 -387.929 253 193 182
152 343 -387.894 253 195 183
153 343 -387.86 255 197 185
154 343 -387.755 255 199 188
155 343 -387.651 255 200 189
156 343 -387.794 255 201 191
157 343 -387.932 255 201 191
158 343 -387.797 254 201 193
159 343 -387.831 254 199 192
160 343 -388 254 198 185
161 343 -388.036 253 195 181
162 343 -388.381 255 195 179
163 343 -388.491 255 184 169
164 343 -386.534 240 164 148
165 343 -385.471 224 145 128
166 343 -386.744 208 125 109
167 343 -388.228 197 112 92
168 343 -387.655 187 97 86
169 343 -386.4 178 85 77
170 343 -383.8 176 81 75
171 343 -383.03 175 78 72
172 343 -383.304 176 78 75
173 343 -384.941 179 81 78
174 343 -387.068 180 85 79
175 343 -387.819 183 93 85
176 343 -387.427 186 99 90
177 343 -387.842 186 101 94
178 343 -387.85 188 100 98
179 343 -387.22 188 98 97
180 343 -387.02 188 95 90
181 343 -385.288 188 99 93
182 343 -384.777 147 69 65
183 343 -381.251 114 49 45
188 343 -243.132 130 58 44
189 343 -242.27 143 63 54
190 343 -239.137 146 61 56
191 343 -238.793 154 66 62
192 343 -236.861 168 71 65
193 343 -235.728 181 80 72
194 343 -238.109 182 90 79
195 343 -238.775 190 96 84
196 343 -237.726 201 99 84
197 343 -236.047 215 113 99
198 343 -237.576 222 118 109
199 343 -236.053 236 131 127
200 343 -237.251 244 136 136
201 343 -237.691 246 137 140
202 343 -237.767 249 139 140
203 343 -237.683 248 138 139
204 343 -237.681 246 136 135
205 343 -236.879 244 135 132
206 343 -236.222 244 134 133
207 343 -236.533 242 134 131
208 343 -237.562 237 134 127
209 343 -238.364 234 136 127
210 343 -238.761 234 136 127
211 343 -238.955 232 134 125
212 343 -238.148 231 134 125
213 343 -237.521 229 136 128
214 343 -237.439 229 137 126
215 343 -238.239 230 136 124
216 343 -238.236 231 137 125
217 343 -239.424 233 140 125
218 343 -239.453 235 143 128
219 343 -238.605 236 145 127
220 343 -236.134 237 143 133
221 343 -235.532 238 144 136
222 343 -235.66 239 144 138
223 343 -234.733 242 145 139
224 343 -232.813 244 142 138
225 343 -234.422 242 138 135
226 343 -234.108 240 138 134
227 343 -234.521 238 139 133
228 343 -237.071 235 138 129
229 343 -235.751 235 139 127
230 343 -234.578 235 139 125
236 343 -239.548 234 138 124
237 343 -241.306 235 139 125
238 343 -239.06 234 138 124
239 343 -237.494 234 136 123
240 343 -236.481 232 136 120
241 343 -237.889 229 133 117
242 343 -237.527 231 134 117
243 343 -236.593 232 135 118
244 343 -236.981 232 131 119
245 343 -237.011 231 130 122
246 343 -236.914 231 128 123
247 343 -237.808 225 124 116
248 343 -237.557 222 124 111
249 343 -238 219 123 107
250 343 -238.405 222 124 111
251 343 -238.289 221 123 112
252 343 -238.453 220 122 113
253 343 -239.111 221 123 114
254 343 -239.099 217 121 109
255 343 -238.946 216 120 108
256 343 -238.617 210 116 104
257 343 -238.469 205 113 100
258 343 -238 195 104 103
259 343 -238.335 195 107 93
260 343 -239.104 190 104 89
261 343 -240.381 188 102 89
262 343 -239.731 181 95 82
263 343 -238.423 174 88 75
264 343 -237.775 172 82 74
265 343 -237.308 172 79 71
266 343 -236.975 170 78 67
267 343 -235.452 165 77 67
272 343 -321.215 144 112 71
273 343 -315.64 156 124 83
274 343 -315.16 161 132 92
275 343 -313.863 169 137 99
276 343 -311.937 179 140 107
277 343 -313 183 139 110
278 343 -314.193 178 136 111
279 343 -312.66 166 130 104
280 343 -312.801 150 122 98
281 343 -313.52 131 106 84
282 343 -312.709 123 101 80
288 343 -239.548 88 39 35
289 343 -240.621 88 40 36
290 343 -237.677 82 39 33
291 343 -235.074 82 38 35
292 343 -233.62 85 37 37
293 343 -233.022 87 35 37
294 343 -231.193 89 33 32
295 343 -232.209 85 29 28
296 343 -236.206 77 26 23
297 343 -236.432 74 24 23
298 343 -235.291 70 24 26
299 343 -236.112 65 23 25
300 343 -233.152 61 22 27
341 343 -161.349 51 34 26
342 343 -161.733 55 34 29
343 343 -162.752 58 34 30
346 343 -248.896 129 81 67
347 343 -241.38 146 100 84
348 343 -240.744 138 103 83
349 343 -238.249 111 86 66
350 343 -220.246 97 75 77
419 343 -231.961 35 24 18
56 342 -385.728 158 121 95
57 342 -382.249 181 143 120
58 342 -380.537 186 144 122
59 342 -380.464 174 136 113
60 342 -382.446 191 159 121
61 342 -379.167 134 110 86
63 342 -308.678 91 67 31
64 342 -303.563 93 65 28
65 342 -307 101 73 36
66 342 -306.878 114 91 50
67 342 -307.176 129 107 66
68 342 -306.609 132 110 69
69 342 -306.31 132 110 69
70 342 -306.867 144 121 79
71 342 -306.882 155 130 89
72 342 -307.052 172 143 103
73 342 -307.05 177 145 107
74 342 -307.113 165 129 95
75 342 -307.073 141 102 71
76 342 -305.998 101 64 35
77 342 -304.558 94 57 30
78 342 -305.365 86 51 23
79 342 -311.197 77 47 19
82 342 -375.532 103 51 40
83 342 -375.932 127 67 56
84 342 -373.602 140 73 57
85 342 -383.602 167 80 71
86 342 -384.254 197 109 95
87 342 -380.813 211 131 104
88 342 -379.435 229 144 115
89 342 -382.348 227 141 114
90 342 -382.447 243 156 129
91 342 -382.562 248 161 134
92 342 -381.713 252 165 148
93 342 -381.598 254 175 160
94 342 -381.345 255 189 173
95 342 -381.963 255 198 181
96 342 -381.964 254 208 192
97 342 -382.035 255 217 196
98 342 -382 255 220 206
99 342 -381.935 255 225 214
100 342 -382 255 229 220
101 342 -382.156 255 234 226
102 342 -382.216 255 237 227
103 342 -382.092 254 236 226
104 342 -382.091 255 237 225
105 342 -382.214 255 238 226
106 342 -382.213 255 238 226
107 342 -382.061 255 236 225
108 342 -381.97 255 237 223
109 342 -382.091 255 236 222
110 342 -382.03 254 235 220
111 342 -381.819 253 233 224
112 342 -381.94 253 233 224
113 342 -381.909 255 232 224
114 342 -381.787 255 232 226
115 342 -381.755 255 230 226
116 342 -381.754 255 228 225
117 342 -381.751 255 226 224
118 342 -381.655 255 225 223
119 342 -381.558 255 224 221
120 342 -381.684 255 223 216
121 342 -381.714 255 221 212
122 342 -381.615 255 218 209
123 342 -381.51 254 216 207
124 342 -381.532 255 213 204
125 342 -381.423 255 212 203
126 342 -381.52 255 209 199
127 342 -381.587 255 208 196
128 342 -381.861 254 205 191
129 342 -381.895 255 203 189
130 342 -381.858 255 203 189
131 342 -381.786 255 203 189
132 342 -381.821 255 202 188
133 342 -381.785 255 202 186
134 342 -381.821 255 202 186
135 342 -382 254 201 183
136 342 -381.784 255 200 183
137 342 -381.856 255 199 182
138 342 -382 255 197 181
139 342 -382.073 255 196 182
140 342 -382.146 255 196 183
141 342 -382.073 255 196 183
142 342 -381.927 255 195 182
143 342 -382.072 255 195 180
144 342 -381.892 255 193 181
145 342 -381.892 255 192 180
146 342 -381.712 255 193 182
147 342 -381.785 255 193 182
148 342 -381.604 255 193 184
149 342 -381.679 255 192 183
150 342 -381.965 252 192 181
151 342 -381.827 253 193 182
152 342 -381.896 253 193 182
153 342 -381.897 255 196 185
154 342 -381.793 255 199 187
155 342 -381.691 255 200 189
156 342 -381.727 255 200 191
157 342 -381.728 255 200 193
158 342 -381.728 254 199 194
159 342 -381.762 255 198 191
160 342 -382.034 255 197 183
161 342 -381.858 255 194 179
162 342 -382.22 255 193 177
163 342 -382.503 255 182 167
164 342 -380.927 237 160 142
165 342 -379.367 220 142 122
166 342 -380.169 203 120 102
167 342 -381.591 189 103 88
168 342 -381.286 181 93 81
169 342 -379.909 175 85 76
170 342 -378.251 173 78 72
171 342 -377.128 169 74 70
172 342 -376.802 172 74 73
173 342 -378.292 177 79 78
174 342 -381.156 178 83 79
175 342 -381.821 185 92 87
176 342 -382 186 97 91
177 342 -382.477 194 105 89
178 342 -382.886 192 104 90
179 342 -380.834 189 97 98
180 342 -380.376 189 94 92
181 342 -379.208 185 94 91
182 342 -375.873 148 68 67
183 342 -371.615 119 51 50
187 342 -228.838 99 46 30
188 342 -233.809 128 56 44
189 342 -234.661 147 67 60
190 342 -233.002 147 61 60
191 342 -234.124 157 69 67
192 342 -230.849 163 68 64
193 342 -229.99 174 77 70
194 342 -232.542 176 86 77
195 342 -231.904 189 88 76
196 342 -230.92 196 94 80
197 342 -230.026 208 106 94
198 342 -231.141 217 112 106
199 342 -230.128 231 126 123
200 342 -231.834 238 129 132
201 342 -231.765 242 133 138
202 342 -231.674 244 135 138
203 342 -231.078 244 136 136
204 342 -231.214 241 133 131
205 342 -230.96 238 130 127
206 342 -230.748 237 129 126
207 342 -231.121 235 130 126
208 342 -231.601 233 132 124
209 342 -232.526 232 134 125
210 342 -232.866 232 134 125
211 342 -232.449 231 133 124
212 342 -232 229 135 125
213 342 -232 229 137 126
214 342 -232 229 137 126
215 342 -232.617 232 135 126
216 342 -234.217 236 139 130
217 342 -233.304 237 141 129
218 342 -232.593 238 145 130
219 342 -232.187 239 146 129
220 342 -230.158 239 145 137
221 342 -229.92 242 145 138
222 342 -229.961 243 146 140
223 342 -230.22 243 143 141
224 342 -230.206 244 140 139
225 342 -231.056 243 139 138
226 342 -230.808 242 140 136
227 342 -230.298 241 139 134
228 342 -231.535 236 138 129
229 342 -229.988 235 137 128
230 342 -227.589 235 137 126
236 342 -235.123 235 139 127
237 342 -237.343 237 141 129
238 342 -234.548 236 140 128
239 342 -230.967 235 137 124
240 342 -230.304 234 137 121
241 342 -232 231 134 118
242 342 -231.201 232 135 119
243 342 -230.57 234 134 119
244 342 -231.071 233 131 119
245 342 -230.944 233 130 121
246 342 -231.218 230 129 121
247 342 -231.63 227 126 118
248 342 -231.747 221 123 110
249 342 -231.762 220 124 110
250 342 -232.457 223 125 114
251 342 -232.396 222 124 115
252 342 -232.678 220 121 115
253 342 -233.222 221 122 116
254 342 -232.716 216 119 110
255 342 -232.265 215 119 107
256 342 -232.526 211 117 105
257 342 -232.833 208 116 101
258 342 -232.054 200 111 95
259 342 -231.774 191 103 101
260 342 -233.5 193 107 90
261 342 -234.353 187 104 88
262 342 -233.588 179 96 82
263 342 -232.829 175 89 76
264 342 -232.233 170 84 71
265 342 -231.302 172 79 71
266 342 -231.105 171 79 68
267 342 -230.842 168 78 67
268 342 -228.803 164 77 68
269 342 -228.322 156 76 69
272 342 -312.258 142 110 71
273 342 -309.103 155 123 84
274 342 -309.702 162 133 93
275 342 -309.143 170 136 99
276 342 -307.229 179 138 106
277 342 -307.217 184 140 111
278 342 -307.595 178 137 109
279 342 -306.135 162 127 99
280 342 -306.766 141 114 87
281 342 -307.142 127 106 79
282 342 -307.136 128 108 83
283 342 -305.94 99 83 60
289 342 -233.91 89 41 37
290 342 -231.525 85 40 34
291 342 -229.631 87 39 35
292 342 -229.277 89 38 37
293 342 -229.364 91 37 35
294 342 -226.493 94 36 35
295 342 -226.209 93 33 32
296 342 -231.156 83 28 25
297 342 -230.929 81 27 25
298 342 -232.214 76 28 26
299 342 -231.139 75 25 28
300 342 -229.71 71 25 28
301 342 -228.272 65 24 28
342 342 -155.087 52 33 27
343 342 -156.49 55 34 31
344 342 -157.242 57 33 33
347 342 -235.294 113 70 53
348 342 -235.004 129 91 72
349 342 -233.893 133 102 84
350 342 -222.813 130 99 104
351 342 -217.894 84 59 63
418 342 -227.639 37 26 20
419 342 -226.132 37 26 20
420 342 -228.838 36 22 19
56 341 -381.739 184 147 121
57 341 -377.77 202 164 141
58 341 -374.913 192 152 127
59 341 -374.865 160 124 98
60 341 -378.641 171 146 106
61 341 -374.27 118 101 75
62 341 -311.932 94 70 34
63 341 -302.271 90 64 27
64 341 -296.179 107 77 39
65 341 -299.429 119 89 51
66 341 -301.645 129 104 64
67 341 -301.774 136 113 72
68 341 -300.922 128 109 67
69 341 -300.447 126 107 65
70 341 -300.715 135 113 72
71 341 -300.706 130 107 66
72 341 -301 122 96 59
73 341 -301 121 91 55
74 341 -301.102 109 76 43
75 341 -301 90 57 26
76 341 -299.684 71 37 9
77 341 -297.756 72 41 13
81 341 -376.251 89 36 28
82 341 -372.622 107 48 40
83 341 -370.405 139 72 63
84 341 -367.617 154 85 70
85 341 -374.471 162 89 70
86 341 -375.931 181 107 80
87 341 -374.471 205 128 98
88 341 -374.282 225 142 110
89 341 -377.034 231 144 116
90 341 -376.673 244 157 127
91 341 -376.468 249 162 134
92 341 -376.122 254 168 143
93 341 -375.841 252 173 158
94 341 -375.346 255 188 172
95 341 -376 255 197 179
96 341 -375.821 255 210 191
97 341 -375.965 252 215 197
98 341 -375.9 255 219 205
99 341 -375.776 255 225 214
100 341 -375.938 255 230 221
101 341 -376.092 255 235 226
102 341 -376.121 255 238 228
103 341 -375.97 255 238 228
104 341 -375.941 255 240 227
105 341 -376.059 255 240 227
106 341 -376.089 255 240 227
107 341 -376.059 255 239 227
108 341 -376.059 255 238 226
109 341 -376.148 255 238 226
110 341 -376.148 255 237 223
111 341 -376 253 233 226
112 341 -376.059 255 236 221
113 341 -375.852 254 234 227
114 341 -375.792 255 232 228
115 341 -375.731 255 231 227
116 341 -375.67 255 229 228
117 341 -375.576 255 227 226
118 341 -375.575 255 225 223
119 341 -375.574 255 224 221
120 341 -375.602 255 224 219
121 341 -375.722 255 222 213
122 341 -375.624 254 220 210
123 341 -375.523 255 217 206
124 341 -375.514 254 214 204
125 341 -375.507 255 211 202
126 341 -375.535 255 209 199
127 341 -375.6 255 208 196
128 341 -375.799 254 205 191
129 341 -375.898 255 203 189
130 341 -375.725 255 204 190
131 341 -375.72 255 204 187
132 341 -375.789 255 202 186
133 341 -375.792 255 202 186
134 341 -375.897 255 202 184
135 341 -375.898 255 200 183
136 341 -375.93 255 198 181
137 341 -376.035 254 196 182
138 341 -376.176 255 196 182
139 341 -376.177 255 196 182
140 341 -376.143 255 196 183
141 341 -376.071 255 196 183
142 341 -375.929 255 195 182
143 341 -376 255 193 180
144 341 -376.071 255 192 177
145 341 -375.858 254 190 178
146 341 -375.823 253 191 180
147 341 -375.717 254 192 181
148 341 -375.504 255 193 184
149 341 -375.58 255 192 183
150 341 -375.758 253 193 182
151 341 -375.657 254 194 183
152 341 -375.931 253 193 182
153 341 -375.897 255 195 184
154 341 -375.862 255 198 186
155 341 -375.794 255 199 187
156 341 -375.793 255 199 188
157 341 -375.795 255 199 190
158 341 -375.759 255 198 191
159 341 -375.794 254 197 190
160 341 -375.826 255 195 185
161 341 -375.823 255 193 181
162 341 -376 255 189 174
163 341 -375.807 252 179 162
164 341 -374.954 238 161 143
165 341 -374.992 218 140 120
166 341 -375.295 199 118 99
167 341 -374.934 186 103 85
168 341 -374.331 175 92 78
169 341 -372.424 173 85 75
170 341 -372.126 165 75 67
171 341 -372.229 162 69 64
172 341 -372.272 166 71 67
173 341 -372.644 172 77 73
174 341 -374.055 178 85 80
175 341 -374.927 184 93 88
176 341 -376.93 191 102 86
177 341 -376.5 194 105 89
178 341 -377.466 192 104 90
179 341 -374.945 189 95 96
180 341 -374.582 189 94 92
181 341 -373.974 183 94 90
182 341 -369.418 146 68 64
183 341 -362.621 116 51 47
188 341 -227.681 122 52 42
189 341 -228.41 149 70 65
190 341 -227.091 148 64 64
191 341 -227.199 155 69 68
192 341 -225.572 159 66 61
193 341 -224.549 167 73 65
194 341 -226.83 172 84 72
195 341 -225.682 184 86 73
196 341 -224.592 192 92 77
197 341 -224.511 204 102 90
198 341 -225.208 213 108 102
199 341 -225.121 225 120 117
200 341 -225.628 234 125 128
201 341 -225.846 237 128 133
202 341 -225.193 240 131 134
203 341 -224.326 241 133 133
204 341 -223.878 238 133 130
205 341 -224.692 235 130 126
206 341 -225.069 232 129 124
207 341 -225.615 231 128 121
208 341 -226.099 228 130 121
209 341 -226.501 230 132 123
210 341 -226.51 230 132 123
211 341 -226.534 230 132 123
212 341 -226.326 230 133 126
213 341 -226.649 232 135 128
214 341 -226.606 232 135 128
215 341 -226.696 233 136 129
216 341 -226.656 236 139 130
217 341 -226 236 144 131
218 341 -225.481 238 146 135
219 341 -225.647 238 144 136
220 341 -225 241 144 137
221 341 -224.206 244 145 140
222 341 -224.525 244 144 142
223 341 -225.024 244 141 142
224 341 -225.827 243 139 140
225 341 -225.463 244 138 140
226 341 -225.227 242 138 137
227 341 -224.962 240 138 134
228 341 -226 235 136 130
229 341 -224.668 234 136 127
236 341 -229.162 235 139 127
237 341 -230.684 238 142 130
238 341 -227.83 236 140 128
239 341 -224.635 235 137 126
240 341 -224.802 235 137 124
241 341 -225.618 233 136 120
242 341 -225.125 234 133 121
243 341 -224.325 234 133 121
244 341 -225.139 233 130 121
245 341 -225.7 231 130 120
246 341 -225.664 230 129 119
247 341 -226.188 227 132 112
248 341 -226.31 224 127 110
249 341 -226.179 223 126 110
250 341 -226.804 225 127 116
251 341 -226.622 223 125 116
252 341 -226.725 221 122 116
253 341 -227.202 221 122 116
254 341 -226.494 216 119 110
255 341 -225.946 213 115 112
256 341 -226.216 210 118 103
257 341 -226.746 208 117 99
258 341 -226.164 201 112 94
259 341 -225.773 191 103 102
260 341 -228.164 195 110 90
261 341 -227.666 184 101 83
262 341 -226.782 177 94 80
263 341 -227.354 178 92 79
264 341 -226.533 171 85 72
265 341 -225.913 171 79 68
266 341 -225.819 170 78 65
267 341 -225.708 170 78 65
268 341 -225.225 167 79 69
269 341 -223.645 164 79 72
272 341 -306.231 149 115 78
273 341 -301.366 158 126 88
274 341 -300.511 163 133 95
275 341 -301.546 170 137 102
276 341 -301.566 177 136 104
277 341 -301.153 181 138 106
278 341 -301.078 175 136 105
279 341 -300.815 159 126 95
280 341 -299.799 139 116 84
281 341 -300.691 124 105 73
282 341 -301.391 130 113 83
283 341 -299.859 103 89 62
289 341 -226.366 91 42 37
290 341 -225.374 89 42 34
291 341 -223.78 89 40 35
292 341 -224.748 91 37 35
293 341 -224.247 93 37 36
294 341 -221.953 97 37 36
295 341 -221.602 97 36 35
296 341 -222.521 94 34 33
297 341 -223.231 90 32 30
298 341 -224.485 85 29 30
299 341 -223.965 84 29 32
300 341 -222.593 82 32 35
301 341 -221.416 77 33 34
302 341 -222.578 69 31 28
345 341 -150.179 52 31 30
348 341 -230.094 95 56 39
349 341 -226.946 123 90 73
350 341 -220.381 150 111 116
351 341 -218.894 117 85 90
352 341 -214.348 87 65 67
417 341 -221.65 35 27 16
418 341 -221.244 40 30 21
419 341 -220.565 39 28 22
420 341 -222.964 37 23 20
55 340 -380.196 158 122 88
56 340 -373.755 199 163 139
57 340 -374.748 217 181 159
58 340 -373.278 195 164 136
59 340 -369.713 144 112 87
60 340 -371.594 139 121 81
62 340 -301.709 100 74 39
63 340 -298.557 106 76 40
64 340 -292.671 126 94 56
65 340 -294.263 141 109 70
66 340 -295.961 151 123 84
67 340 -296.049 149 126 85
68 340 -295.428 135 116 76
69 340 -295.073 129 111 73
70 340 -294.839 120 100 63
71 340 -295.242 92 70 33
72 340 -295.599 70 46 12
73 340 -295.426 69 43 10
74 340 -295.459 69 40 10
81 340 -372.913 103 46 35
82 340 -370.582 115 52 43
83 340 -366.035 147 77 69
84 340 -364.962 165 91 78
85 340 -367.895 171 96 75
86 340 -369.725 183 108 79
87 340 -369.171 202 126 94
88 340 -369.733 216 136 101
89 340 -371.294 234 143 114
90 340 -370.544 245 154 123
91 340 -370.468 252 163 133
92 340 -370.121 255 169 142
93 340 -369.843 252 173 158
94 340 -369.388 255 186 170
95 340 -369.782 255 198 179
96 340 -369.759 255 210 190
97 340 -369.798 254 216 197
98 340 -369.903 255 220 204
99 340 -369.875 255 225 212
100 340 -369.817 255 231 222
101 340 -369.97 255 235 227
102 340 -369.97 255 237 230
103 340 -369.912 255 240 230
104 340 -369.912 255 241 228
105 340 -370 255 241 228
106 340 -370.029 255 241 228
107 340 -370.088 255 240 230
108 340 -370.029 255 240 230
109 340 -370.176 255 240 230
110 340 -370.235 255 239 229
111 340 -370.148 255 239 226
112 340 -370.03 255 237 223
113 340 -369.823 255 235 228
114 340 -369.763 255 233 229
115 340 -369.704 255 231 230
116 340 -369.615 255 228 230
117 340 -369.642 255 226 226
118 340 -369.671 255 225 223
119 340 -369.7 255 224 221
120 340 -369.699 255 224 219
121 340 -369.664 255 223 214
122 340 -369.597 255 220 211
123 340 -369.466 255 217 206
124 340 -369.523 255 213 204
125 340 -369.583 255 211 200
126 340 -369.611 255 208 198
127 340 -369.607 255 206 195
128 340 -369.736 255 204 190
129 340 -369.767 255 205 188
130 340 -369.831 255 205 188
131 340 -369.728 255 205 188
132 340 -369.762 255 203 187
133 340 -369.898 255 202 184
134 340 -369.899 255 201 184
135 340 -369.9 255 200 183
136 340 -370.034 255 197 183
137 340 -370.068 255 196 182
138 340 -370.138 255 195 182
139 340 -370.139 255 195 182
140 340 -370 255 194 181
141 340 -369.858 255 195 182
142 340 -369.823 255 193 183
143 340 -369.822 255 192 182
144 340 -369.964 255 188 179
145 340 -369.893 255 188 179
146 340 -369.857 253 189 179
147 340 -369.823 254 190 180
148 340 -369.611 255 191 182
149 340 -369.545 255 192 183
150 340 -369.686 254 192 181
151 340 -369.688 255 193 182
152 340 -370.035 254 196 176
153 340 -370 254 194 183
154 340 -369.862 255 196 185
155 340 -369.792 255 197 186
156 340 -369.725 255 199 188
157 340 -369.758 255 197 189
158 340 -369.722 255 196 190
159 340 -369.861 254 195 189
160 340 -369.718 255 192 183
161 340 -369.929 255 188 179
162 340 -370.073 255 187 173
163 340 -369.575 253 177 163
164 340 -369.348 238 159 142
165 340 -370.252 217 136 119
166 340 -370.473 197 116 99
167 340 -368.632 182 104 84
168 340 -367.083 172 93 78
169 340 -365.167 167 85 73
170 340 -365.925 159 72 63
171 340 -367.091 155 66 60
172 340 -366.938 158 67 62
173 340 -366.042 165 74 69
174 340 -366.431 174 85 79
175 340 -369.553 180 91 85
176 340 -371.317 193 104 90
177 340 -369.745 192 101 98
178 340 -370.609 192 102 91
179 340 -369.284 186 95 94
180 340 -369.822 189 96 91
181 340 -369.557 185 98 91
182 340 -366.097 142 67 61
188 340 -229.865 116 47 40
189 340 -226.792 145 70 67
190 340 -220.743 143 63 62
191 340 -218.332 158 68 70
192 340 -220.51 154 69 62
193 340 -219.216 162 69 62
194 340 -221.989 169 81 71
195 340 -219.838 179 83 69
196 340 -218.908 187 90 74
197 340 -219.569 198 98 83
198 340 -219.676 207 104 97
199 340 -219.478 219 114 111
200 340 -219.36 229 120 123
201 340 -219.423 233 124 129
202 340 -218.937 235 129 131
203 340 -218.397 237 131 131
204 340 -218.375 235 132 127
205 340 -219.19 232 129 122
206 340 -219.518 229 128 120
207 340 -219.7 229 128 118
208 340 -220.097 227 130 121
209 340 -220.379 228 131 122
210 340 -220.284 228 131 122
211 340 -220 228 131 122
212 340 -220.687 232 133 127
213 340 -220.678 234 135 129
214 340 -220.299 234 135 130
215 340 -219.681 232 139 131
216 340 -220 234 142 131
217 340 -219.502 237 145 134
218 340 -219.2 240 146 138
219 340 -219.121 241 144 137
220 340 -219.409 242 143 138
221 340 -218.349 246 144 142
222 340 -218.614 246 143 144
223 340 -219.525 244 139 143
224 340 -219.517 246 140 144
225 340 -219.481 245 139 141
226 340 -219.248 242 138 137
227 340 -219.788 239 135 132
228 340 -220.693 242 138 125
229 340 -219.21 236 134 129
236 340 -222.424 235 139 127
237 340 -224.786 239 143 131
238 340 -223.223 238 141 132
239 340 -220 235 137 126
240 340 -220.3 233 140 122
241 340 -220.13 232 139 121
242 340 -218.958 234 133 123
243 340 -218.62 234 133 123
244 340 -219.353 233 132 122
245 340 -220.24 229 136 119
246 340 -220.485 230 135 117
247 340 -220.322 228 133 115
248 340 -220.864 228 131 114
249 340 -220.775 226 128 115
250 340 -221.238 230 129 119
251 340 -220.997 227 126 118
252 340 -220.826 222 123 117
253 340 -221.09 222 123 117
254 340 -220.442 217 120 111
255 340 -220.164 216 120 108
256 340 -219.945 205 108 117
257 340 -220.168 204 113 95
258 340 -220 194 102 105
259 340 -220.114 196 109 89
260 340 -222.629 199 112 93
261 340 -221.014 183 96 79
262 340 -219.74 175 88 81
263 340 -221.401 179 91 81
264 340 -220.668 174 86 76
265 340 -220.589 172 84 72
266 340 -220.546 171 84 67
267 340 -219.73 172 80 67
268 340 -219.579 170 82 68
269 340 -218.147 170 83 73
272 340 -300.996 162 128 93
273 340 -295.572 165 132 97
274 340 -292.789 167 137 101
275 340 -294.709 173 140 105
276 340 -296.442 176 137 104
277 340 -295 176 135 103
278 340 -293.477 169 133 99
279 340 -294.177 153 123 89
280 340 -292.975 135 115 80
281 340 -293.829 119 105 70
282 340 -295.144 126 111 78
283 340 -295.236 104 91 59
288 340 -215.231 103 50 36
289 340 -218.78 101 49 36
290 340 -218.689 95 45 36
291 340 -218.597 91 40 36
292 340 -217.908 94 38 37
293 340 -217.508 97 39 38
294 340 -216.297 100 39 38
295 340 -215.767 101 40 37
296 340 -216.017 103 42 39
297 340 -216.744 97 37 36
298 340 -218.375 93 33 33
299 340 -218.542 89 33 34
300 340 -217.298 90 36 36
301 340 -217.556 86 38 36
302 340 -218.438 78 37 31
349 340 -219.514 100 54 57
350 340 -214.441 147 100 106
351 340 -216.272 141 100 106
352 340 -216.198 121 90 95
353 340 -209.303 91 69 71
417 340 -215.108 37 28 19
418 340 -215.975 41 30 24
419 340 -215.128 39 28 22
420 340 -215.803 39 25 22
421 340 -218.927 37 21 21
54 339 -373.787 163 128 88
55 339 -373.346 192 156 122
56 339 -365.834 198 162 138
57 339 -366.834 208 176 153
58 339 -364.698 186 159 130
59 339 -354.615 138 111 84
60 339 -352.292 118 101 73
62 339 -294.429 116 87 53
63 339 -292.131 126 93 58
64 339 -289.95 146 112 75
65 339 -289.33 159 127 88
66 339 -289.705 164 136 97
67 339 -289.703 150 126 88
68 339 -289.44 131 111 74
69 339 -289.63 130 112 76
70 339 -289.601 123 105 69
71 339 -289.776 95 76 43
72 339 -290.681 72 49 17
73 339 -290.794 65 42 11
74 339 -289 64 39 9
80 339 -365.008 92 39 25
81 339 -366.555 111 52 38
82 339 -364.66 122 60 47
83 339 -360.272 148 75 66
84 339 -361.322 163 87 73
85 339 -362.509 173 96 76
86 339 -364.265 194 98 82
87 339 -364.174 211 112 91
88 339 -364.537 221 126 98
89 339 -364.696 234 139 107
90 339 -364.225 244 151 118
91 339 -364.168 252 163 131
92 339 -363.96 252 166 151
93 339 -363.654 252 175 159
94 339 -363.702 253 186 169
95 339 -363.788 255 198 179
96 339 -363.866 255 210 187
97 339 -363.87 254 216 195
98 339 -363.937 255 222 203
99 339 -363.846 255 227 213
100 339 -363.849 255 232 222
101 339 -363.941 255 237 228
102 339 -363.912 255 239 232
103 339 -363.883 255 242 231
104 339 -363.883 255 241 228
105 339 -363.971 255 241 228
106 339 -364.087 255 242 229
107 339 -364.087 255 241 231
108 339 -364.087 255 241 233
109 339 -364.087 255 241 232
110 339 -364.204 255 241 232
111 339 -363.941 255 237 233
112 339 -363.941 255 236 230
113 339 -363.852 255 236 229
114 339 -363.734 255 234 229
115 339 -363.763 255 230 229
116 339 -363.672 255 227 229
117 339 -363.76 255 225 225
118 339 -363.82 255 224 222
119 339 -363.79 255 224 221
120 339 -363.7 255 224 219
121 339 -363.664 255 223 214
122 339 -363.596 255 221 209
123 339 -363.563 255 218 205
124 339 -363.591 255 214 202
125 339 -363.682 255 209 199
126 339 -363.581 255 207 197
127 339 -363.511 255 205 194
128 339 -363.737 255 204 190
129 339 -363.901 255 204 187
130 339 -363.834 255 205 188
131 339 -363.8 255 205 186
132 339 -363.833 255 203 185
133 339 -363.967 255 202 184
134 339 -363.9 255 201 184
135 339 -363.901 255 200 183
136 339 -364.033 255 197 183
137 339 -364.067 255 196 182
138 339 -364.069 255 194 181
139 339 -364.174 255 194 181
140 339 -364 255 193 180
141 339 -363.929 255 193 180
142 339 -363.893 255 191 181
143 339 -363.892 254 190 180
144 339 -363.891 255 189 180
145 339 -363.818 255 189 180
146 339 -363.747 254 190 180
147 339 -363.821 254 190 180
148 339 -363.716 254 190 181
149 339 -363.788 254 190 181
150 339 -363.894 253 191 180
151 339 -363.894 253 191 180
152 339 -364.035 254 196 176
153 339 -363.93 254 194 183
154 339 -363.861 255 196 185
155 339 -363.86 255 196 185
156 339 -363.791 255 198 187
157 339 -363.72 255 198 187
158 339 -363.823 254 195 187
159 339 -363.929 254 194 186
160 339 -363.608 255 191 185
161 339 -364 254 186 177
162 339 -364.406 255 186 173
163 339 -364.193 253 176 160
164 339 -363.607 236 157 140
165 339 -363.695 214 136 116
166 339 -363.637 192 116 93
167 339 -362.74 178 103 82
168 339 -360.975 166 91 72
169 339 -359.761 159 82 66
170 339 -361.215 151 69 57
171 339 -361.626 148 64 54
172 339 -361.213 150 63 54
173 339 -359.529 157 70 61
174 339 -361.194 166 82 72
175 339 -366.075 181 98 82
176 339 -366.67 194 104 93
177 339 -364.597 194 102 91
178 339 -364.332 192 102 91
179 339 -364 184 95 91
180 339 -364.535 189 103 90
181 339 -364.844 188 109 96
182 339 -362.8 138 68 58
189 339 -227.955 129 55 54
190 339 -214.946 131 55 55
191 339 -211.271 152 66 69
192 339 -214.108 152 69 61
193 339 -212.518 158 68 60
194 339 -216.189 167 79 67
195 339 -214.253 171 83 71
196 339 -212.996 183 88 70
197 339 -213.774 192 95 79
198 339 -213.437 204 101 94
199 339 -212.98 216 111 108
200 339 -213.549 220 114 116
201 339 -213.311 226 120 122
202 339 -212.752 232 126 128
203 339 -212.76 232 128 127
204 339 -213.796 228 126 121
205 339 -214.527 221 128 120
206 339 -213.754 224 126 115
207 339 -213.047 227 129 118
208 339 -214.083 226 129 120
209 339 -214.082 227 130 121
210 339 -214 227 130 121
211 339 -214 228 131 122
212 339 -214.371 232 133 127
213 339 -214.376 234 135 129
214 339 -214 231 138 130
215 339 -213.095 234 141 133
216 339 -214.195 238 139 133
217 339 -213.803 238 144 136
218 339 -213.684 241 144 137
219 339 -213.411 242 143 138
220 339 -213.368 245 143 141
221 339 -212.856 247 143 144
222 339 -212.307 247 142 146
223 339 -213.013 247 141 145
224 339 -212.917 247 141 145
225 339 -212.838 246 140 142
226 339 -213.039 242 138 137
227 339 -214.216 242 138 127
228 339 -214.693 242 138 125
229 339 -214 236 134 129
236 339 -215.965 235 139 125
237 339 -219.205 239 143 131
238 339 -217.874 239 142 133
239 339 -215.493 236 140 128
240 339 -215.117 235 142 125
241 339 -214.377 233 140 123
242 339 -213.319 235 134 126
243 339 -213.152 234 133 125
244 339 -213.719 234 133 123
245 339 -214.161 230 137 122
246 339 -214.5 231 135 119
247 339 -214.268 229 134 116
248 339 -214.565 228 131 115
249 339 -214.606 226 128 115
250 339 -215.065 229 128 118
251 339 -214.989 226 125 117
252 339 -214.619 221 123 114
253 339 -214.844 220 123 114
254 339 -214.451 217 121 109
255 339 -214.498 215 122 107
256 339 -214 205 105 117
257 339 -213.301 198 101 112
258 339 -213.886 193 101 104
259 339 -214.398 198 110 88
260 339 -216.902 204 116 96
261 339 -214.698 184 95 79
262 339 -213.736 175 88 78
263 339 -214.689 177 87 78
264 339 -214.371 175 85 76
265 339 -214.329 172 84 72
266 339 -214.266 171 84 67
267 339 -213.231 172 83 67
268 339 -212.903 173 86 69
269 339 -212.4 172 86 71
272 339 -289.81 172 137 105
273 339 -288.322 172 139 106
274 339 -286.971 173 143 109
275 339 -289.545 176 146 112
276 339 -291.973 176 140 106
277 339 -289.622 174 135 102
278 339 -287.027 166 132 97
279 339 -287.271 147 121 84
280 339 -287.268 131 113 73
281 339 -286.867 118 106 66
282 339 -289.353 118 106 68
288 339 -210.441 109 51 37
289 339 -212.838 107 51 38
290 339 -212.8 99 46 38
291 339 -212.233 95 42 36
292 339 -211.814 97 39 37
293 339 -211.353 98 38 37
294 339 -211.443 99 38 35
295 339 -210.734 103 39 37
296 339 -210.578 104 43 40
297 339 -211.641 100 39 36
298 339 -213.414 94 34 33
299 339 -214.144 95 34 33
300 339 -213.7 92 37 34
301 339 -213.831 88 39 32
302 339 -214.216 84 37 27
303 339 -215.102 79 35 26
350 339 -206.998 112 62 65
351 339 -213.245 131 82 86
352 339 -215.817 135 107 93
353 339 -209.824 127 98 103
354 339 -210.694 93 68 71
417 339 -209.962 35 27 16
418 339 -210.877 38 28 19
419 339 -210.512 37 26 20
420 339 -210.512 38 24 21
421 339 -213.737 37 21 21
52 338 -399.74 120 85 45
53 338 -379.698 148 111 69
54 338 -368.553 181 143 104
55 338 -366.685 199 163 129
56 338 -359.74 189 155 130
57 338 -358.523 198 168 144
58 338 -355.801 200 166 139
59 338 -346.204 142 116 89
61 338 -287.116 120 97 63
62 338 -285.717 137 107 73
63 338 -286.965 149 115 80
64 338 -284.846 160 126 89
65 338 -283.55 165 133 94
66 338 -283.905 158 133 93
67 338 -283.898 132 110 71
68 338 -284.229 108 90 54
69 338 -284.246 102 86 52
70 338 -283.534 94 78 45
71 338 -284.095 80 63 33
72 338 -283.837 72 53 23
73 338 -284.018 65 44 17
74 338 -281.967 59 38 11
80 338 -354.656 95 38 29
81 338 -356.658 113 51 40
82 338 -353.929 133 63 55
83 338 -355.069 147 73 64
84 338 -355.69 157 79 66
85 338 -356.417 175 97 77
86 338 -358.064 196 96 80
87 338 -358.972 214 112 90
88 338 -358.748 224 123 93
89 338 -357.759 225 142 110
90 338 -357.956 236 148 124
91 338 -358.122 254 164 130
92 338 -357.614 255 169 154
93 338 -357.292 255 177 164
94 338 -358.036 255 185 167
95 338 -357.792 255 198 179
96 338 -357.867 254 208 185
97 338 -357.871 254 216 195
98 338 -357.938 255 223 204
99 338 -357.939 255 226 213
100 338 -357.94 255 231 222
101 338 -357.941 255 237 228
102 338 -357.913 255 240 232
103 338 -357.883 255 241 232
104 338 -357.913 255 241 230
105 338 -358 254 242 228
106 338 -358.175 255 242 231
107 338 -358.116 255 242 231
108 338 -358.058 255 242 233
109 338 -358.058 255 240 233
110 338 -358.087 255 240 233
111 338 -357.941 255 238 234
112 338 -357.882 255 237 231
113 338 -357.882 255 235 230
114 338 -357.734 255 233 231
115 338 -357.792 255 230 229
116 338 -357.791 255 227 229
117 338 -357.85 255 225 227
118 338 -357.85 255 223 224
119 338 -357.82 255 224 221
120 338 -357.88 254 224 216
121 338 -357.755 255 222 213
122 338 -357.689 255 221 209
123 338 -357.75 255 218 205
124 338 -357.781 255 214 202
125 338 -357.746 255 210 197
126 338 -357.581 255 207 195
127 338 -357.639 254 205 191
128 338 -357.734 255 204 187
129 338 -358.066 255 202 186
130 338 -358 255 203 185
131 338 -357.901 255 203 185
132 338 -357.9 255 202 184
133 338 -358 255 203 182
134 338 -358.066 255 198 186
135 338 -358.066 255 197 185
136 338 -358.1 255 197 183
137 338 -358.135 255 196 182
138 338 -358.069 255 194 181
139 338 -358.104 255 193 180
140 338 -358.035 255 193 178
141 338 -357.894 255 191 181
142 338 -357.892 254 190 180
143 338 -357.891 253 189 179
144 338 -357.818 255 190 181
145 338 -357.744 255 190 181
146 338 -357.671 255 190 182
147 338 -357.783 255 189 181
148 338 -357.711 254 190 181
149 338 -357.785 254 190 181
150 338 -358 253 189 179
151 338 -357.892 254 190 180
152 338 -357.855 255 193 180
153 338 -357.964 255 194 181
154 338 -357.929 255 195 184
155 338 -357.859 255 196 185
156 338 -357.86 255 196 186
157 338 -357.755 255 196 186
158 338 -357.682 254 195 187
159 338 -357.859 253 193 185
160 338 -357.572 255 190 184
161 338 -357.708 255 184 178
162 338 -358.149 255 182 170
163 338 -358.584 254 175 162
164 338 -357.784 238 157 140
165 338 -356.977 216 138 118
166 338 -356.655 190 115 92
167 338 -356.554 168 96 74
168 338 -355.897 156 83 64
169 338 -355.71 148 72 58
170 338 -357.295 140 62 50
171 338 -356.66 139 59 48
172 338 -356.28 139 57 46
173 338 -355.602 146 64 52
174 338 -356.306 160 81 68
175 338 -360.825 179 100 83
176 338 -361.404 192 102 93
177 338 -359.071 191 98 90
178 338 -358.73 192 102 91
