ply
format ascii 1.0
element vertex 1731
property float x
property float y
property float z
property uchar red
property uchar green
property uchar blue
end_header
239 484 -1093.45 207 140 121
267 484 -1063.48 148 88 64
157 483 -991.877 136 74 33
158 483 -984.622 132 70 31
165 483 -1010.43 148 84 38
169 483 -981.983 133 74 32
170 483 -983.861 131 73 36
206 483 -989.328 142 91 64
207 483 -994.135 136 82 54
208 483 -1007.04 135 78 49
267 483 -1048.64 119 63 40
268 483 -1038.45 107 52 31
199 482 -1010.78 138 83 44
204 482 -1027.3 148 81 54
207 482 -1029.69 138 73 41
240 482 -1003.79 135 75 47
110 480 -1016.55 179 125 65
111 480 -1014.5 164 114 53
105 479 -994.963 171 110 63
106 479 -984.4 166 104 55
108 478 -1033.09 158 97 52
109 478 -1035.5 154 96 48
96 477 -980.912 149 93 44
418 476 -965.783 68 49 34
89 475 -1028.09 149 98 53
76 471 -1010.68 153 100 58
64 467 -1009.17 194 138 91
59 465 -879.169 190 138 91
61 465 -890.589 154 96 48
70 465 -938.386 173 122 77
58 463 -866.303 123 74 31
54 461 -931.093 142 91 44
50 460 -896.799 150 99 54
45 459 -891.867 219 163 116
40 455 -819.194 161 108 76
39 454 -944.451 150 101 69
49 451 -831.043 161 109 72
456 446 -776.269 78 79 48
269 441 -741.439 92 60 19
90 437 -740.257 162 119 84
141 437 -722.574 173 115 91
142 437 -726.2 181 123 99
190 437 -712.799 255 187 161
86 436 -781.932 98 53 34
160 436 -732.793 174 107 91
161 436 -732.888 180 113 96
162 436 -732.656 187 120 103
163 436 -734.252 194 127 110
164 436 -734.979 201 132 116
165 436 -736.471 204 136 117
166 436 -740.209 201 130 110
169 436 -757.042 212 151 122
243 436 -787.814 197 135 110
191 435 -777.358 197 146 125
196 435 -731.259 206 160 136
242 435 -812.181 178 113 93
243 435 -785.152 162 101 73
67 434 -747.778 184 134 107
68 434 -736.629 148 102 78
241 434 -821.655 173 111 90
242 434 -811.17 157 92 70
59 433 -720.717 241 192 149
55 432 -679.769 234 179 140
56 432 -705.662 223 173 136
50 430 -695.585 156 106 81
237 429 -697.333 152 97 76
238 429 -729 150 93 73
237 428 -697.23 178 116 91
38 427 -745.09 248 178 142
41 427 -670.069 156 110 77
247 427 -732.503 121 68 36
272 427 -745.728 161 100 72
40 426 -719.597 130 91 50
272 426 -739.474 153 92 64
33 425 -634.731 247 184 151
34 425 -648.463 233 169 131
272 425 -739.99 139 82 55
271 424 -658.549 106 61 28
32 423 -704.015 148 98 47
29 421 -627.31 113 81 60
273 421 -723.764 103 56 30
277 416 -720.718 159 108 77
277 415 -694.74 170 120 87
277 414 -678.28 168 118 85
37 413 -702.631 103 74 56
277 413 -662.915 156 107 74
277 412 -662.096 139 90 58
36 411 -607.44 179 140 107
277 411 -648.557 104 60 33
104 410 -616.938 176 143 124
28 409 -579.906 142 96 62
66 409 -625.169 85 58 41
67 409 -623.869 100 73 56
71 409 -644.535 166 139 109
72 409 -642.696 171 145 112
28 408 -578.81 143 106 54
59 408 -572.339 86 55 27
60 408 -577.121 109 75 47
61 408 -573.841 136 101 73
62 408 -587.436 154 119 89
63 408 -608.515 180 141 112
64 408 -610.812 199 154 125
65 408 -609.878 216 171 142
66 408 -608.199 212 170 145
163 408 -654.386 181 143 122
164 408 -652.47 177 142 122
165 408 -654.073 172 141 121
201 408 -551.31 93 68 46
216 408 -669.534 83 61 38
58 407 -569.102 191 153 114
59 407 -570.485 203 161 123
201 407 -538.85 234 200 172
210 407 -658.98 235 200 178
214 407 -524.996 241 209 184
279 407 -598.377 146 94 72
279 406 -602.276 109 61 39
48 405 -528.813 182 153 113
59 405 -625.303 241 182 142
145 405 -515.418 182 121 92
42 404 -584.258 115 79 57
43 404 -545.275 140 114 81
45 404 -566.5 179 145 117
167 404 -552.412 173 100 68
41 403 -574.377 186 142 113
167 403 -540.486 195 122 89
168 403 -556.064 192 118 81
35 402 -614.83 126 107 64
36 402 -546.419 127 87 52
40 402 -560.378 235 185 148
136 402 -501.572 162 96 48
281 402 -568.944 106 60 36
38 401 -494.324 233 185 145
281 401 -543.618 108 64 39
159 398 -578.837 255 200 152
160 398 -581.126 255 196 154
161 398 -578.971 255 200 161
162 398 -583.115 255 196 156
155 397 -511.733 243 178 120
156 397 -511.322 242 177 119
157 397 -506.828 251 184 131
158 397 -498.042 254 186 137
159 397 -496.441 255 188 141
160 397 -497.512 253 187 135
161 397 -499.863 255 194 141
162 397 -507.387 255 190 145
163 397 -512 255 189 147
149 396 -507.965 247 181 131
150 396 -503.426 250 178 130
151 396 -501.659 250 180 131
153 396 -506 244 181 127
154 396 -505.602 245 185 125
155 396 -502.927 247 187 127
156 396 -501.594 247 186 131
157 396 -499.959 250 187 134
158 396 -497.194 244 180 132
159 396 -496.418 240 178 131
160 396 -495.928 243 183 131
161 396 -494.497 250 193 140
162 396 -496.942 255 196 149
163 396 -502.805 255 204 160
164 396 -502.042 255 210 171
165 396 -503.153 255 206 169
166 396 -501.682 255 208 171
283 396 -548.225 105 60 39
151 395 -492.764 227 160 108
152 395 -489.1 222 159 105
153 395 -494.068 213 152 95
154 395 -494.284 207 148 90
155 395 -493.706 203 147 88
156 395 -494.595 201 145 88
157 395 -495.799 197 140 87
158 395 -496.272 190 129 82
159 395 -495.423 183 125 77
160 395 -491.109 181 126 72
161 395 -483.725 173 118 64
162 395 -479.073 174 118 69
163 395 -495.428 179 120 76
164 395 -496.481 191 132 92
165 395 -496.869 207 145 106
166 395 -498.012 216 154 115
167 395 -502.902 237 172 130
168 395 -499.444 247 186 142
169 395 -498.623 250 188 141
152 394 -483.24 198 137 82
155 394 -484.922 171 119 61
156 394 -482.257 168 116 59
162 394 -564.65 131 76 35
166 394 -492.748 136 73 32
167 394 -495.357 163 99 53
168 394 -489.485 198 134 88
169 394 -488.696 224 158 108
170 394 -488.856 240 173 120
171 394 -485.541 249 180 125
169 393 -482.892 167 104 51
170 393 -486.349 185 120 64
171 393 -487.225 197 131 73
172 393 -485.858 212 143 86
173 393 -487.647 217 146 90
176 393 -483.639 238 162 112
177 393 -484.419 242 166 117
178 393 -475.014 249 175 126
287 393 -549.248 109 69 44
148 392 -468.65 204 144 90
171 392 -492.035 143 80 26
172 392 -482.328 157 96 41
173 392 -482.272 175 114 59
174 392 -482.472 185 126 70
175 392 -478.242 199 134 76
176 392 -478.21 211 142 87
177 392 -478.393 212 143 88
178 392 -468.811 223 153 101
183 392 -488.006 250 179 137
184 392 -489.748 255 183 143
175 391 -475.315 162 103 45
176 391 -475.377 168 106 49
177 391 -473.478 168 106 49
182 391 -468.647 217 149 100
183 391 -471.17 225 154 108
184 391 -480.216 229 162 119
185 391 -480.539 236 169 127
177 390 -458.993 135 76 20
178 390 -459.185 147 88 32
179 390 -458.099 157 97 43
180 390 -458.295 166 106 52
181 390 -453.434 172 111 57
182 390 -453.057 181 118 67
183 390 -453.419 188 122 72
184 390 -454.454 195 127 78
185 390 -459.493 196 125 79
186 390 -460.787 197 126 80
187 390 -460.922 201 130 84
188 390 -463.759 210 139 93
189 390 -463.291 222 154 107
190 390 -462.459 240 172 125
191 390 -464.997 251 187 141
192 390 -473.695 251 188 147
178 389 -458.946 125 72 18
180 389 -445.948 139 84 30
184 389 -434.749 155 92 41
186 389 -444.304 156 88 41
187 389 -450.168 156 88 41
188 389 -453.428 153 87 39
189 389 -454.831 165 98 53
190 389 -453.112 199 135 89
191 389 -450.186 237 173 127
192 389 -454.244 249 188 143
193 389 -457.13 255 202 157
194 389 -458.672 255 197 154
183 388 -524.814 155 91 47
185 388 -519.31 150 81 40
186 388 -514.601 149 82 40
187 388 -521.31 150 83 41
188 388 -534.67 142 78 34
189 388 -541.865 133 71 22
191 388 -431.186 147 84 40
192 388 -442.756 158 94 50
193 388 -451.895 182 118 74
194 388 -448.36 206 143 100
195 388 -447.67 236 173 132
196 388 -453.085 255 211 172
197 388 -452.209 255 216 176
290 388 -500.039 106 53 39
185 387 -505.78 156 91 53
186 387 -504.193 157 92 54
187 387 -509.181 156 92 54
190 387 -530.401 137 81 34
191 387 -522.803 128 72 25
194 387 -432.583 139 74 32
195 387 -438.312 165 102 59
196 387 -440.593 219 160 118
197 387 -440.138 255 205 165
198 387 -444.97 255 209 170
133 386 -430.822 202 146 99
134 386 -430.549 200 142 96
197 386 -428.961 185 123 86
198 386 -435.337 235 177 140
199 386 -437.287 255 203 167
198 385 -428.461 178 116 79
199 385 -430.692 226 166 130
200 385 -426.109 249 193 160
199 384 -418.409 166 96 62
200 384 -421.072 205 139 105
201 384 -418.269 248 188 154
202 384 -423.064 255 229 194
200 383 -406.052 149 79 45
201 383 -411.896 194 130 95
202 383 -409.754 243 189 153
203 383 -425.185 255 214 178
204 383 -424.506 255 222 187
201 382 -397.369 136 70 35
202 382 -397.331 155 89 54
203 382 -400.197 197 134 99
204 382 -405.289 255 197 163
205 382 -405.772 255 219 185
200 381 -479.037 114 62 22
203 381 -386.005 114 48 13
204 381 -394.375 185 121 86
205 381 -399.058 255 195 160
206 381 -404.382 255 209 172
204 380 -383.992 114 49 11
205 380 -390.217 181 113 76
206 380 -392.534 226 156 120
207 380 -390.55 255 191 153
206 379 -381.029 157 88 49
207 379 -381.824 206 139 97
208 379 -387.635 242 183 139
209 379 -398.756 255 213 166
60 378 -391.984 255 214 170
81 378 -385.5 184 122 71
82 378 -379.173 189 129 75
83 378 -379.807 185 126 68
84 378 -387.997 174 118 57
99 378 -485.924 185 133 76
100 378 -484.285 193 138 82
102 378 -478.4 207 147 97
103 378 -476.277 218 158 108
207 378 -375.138 134 73 28
208 378 -377.087 191 134 79
209 378 -379.693 234 178 121
210 378 -377.586 237 180 125
211 378 -373.504 229 172 117
212 378 -359.276 212 155 102
59 377 -401.669 151 95 60
60 377 -399.878 143 89 53
68 377 -354.334 124 66 20
99 377 -481.548 140 89 32
100 377 -471.424 161 110 53
101 377 -455.597 174 121 67
102 377 -460.568 188 132 81
104 377 -450.406 215 157 109
208 377 -370.728 144 90 30
209 377 -373.588 183 128 64
210 377 -368.033 189 133 72
211 377 -365.391 195 136 78
213 377 -450.29 190 138 80
46 376 -389.929 209 148 103
49 376 -377.861 163 101 60
53 376 -401.732 136 81 40
98 376 -383.759 151 100 43
100 376 -462.102 177 127 74
46 375 -393.01 121 66 25
100 375 -454.502 205 155 104
205 375 -456.814 105 69 33
206 375 -454.299 130 92 56
207 375 -439.044 160 116 77
47 374 -326.115 116 67 26
100 374 -444.269 217 165 117
205 374 -430.127 137 90 60
206 374 -444.512 160 111 81
40 373 -320.824 118 69 36
41 373 -320.996 118 70 34
203 373 -427.206 116 71 42
205 373 -402.473 184 125 95
96 372 -454.57 196 138 88
95 371 -447.287 194 139 85
96 371 -446.481 203 145 95
201 371 -408.206 125 87 50
211 371 -411.304 222 169 125
95 370 -437.321 198 143 89
96 370 -437.648 213 155 105
199 370 -415.439 104 75 33
201 370 -407.497 156 110 74
203 370 -325 176 132 85
209 370 -425.725 164 106 68
210 370 -420.217 199 144 105
95 369 -423.539 205 152 98
96 369 -432.533 218 162 111
198 369 -411.427 105 80 39
199 369 -407.56 148 115 74
203 369 -320.864 168 121 75
94 368 -405.039 204 153 98
198 368 -390.543 135 102 61
199 368 -382.339 172 113 79
208 368 -396.772 163 99 71
196 367 -383.738 120 85 43
197 367 -384.424 162 123 82
198 367 -377.957 183 129 91
199 367 -348.707 187 127 91
207 367 -388.936 148 98 65
208 367 -384.265 199 135 107
194 366 -388.645 115 86 46
195 366 -381.258 120 85 43
199 366 -323.351 154 110 71
207 366 -386.401 192 142 109
208 366 -380.945 222 159 128
268 366 -375.456 123 78 49
91 365 -385.09 198 144 98
92 365 -388.783 219 163 116
193 365 -391.8 90 67 25
194 365 -386.635 157 122 80
199 365 -303.797 154 109 68
206 365 -380.502 135 92 57
207 365 -374.922 218 168 135
268 365 -371.84 113 68 39
91 364 -378.699 211 157 111
196 364 -302.862 177 124 84
197 364 -301.636 174 118 81
203 364 -299.891 96 58 13
205 364 -382.056 98 64 26
206 364 -370.854 161 118 83
191 363 -359.583 110 85 44
197 363 -281.115 164 106 66
203 363 -293.096 83 49 4
205 363 -363.687 146 111 73
206 363 -354.677 204 158 122
270 363 -341.29 127 82 49
89 362 -369.209 195 144 97
197 362 -272.906 137 83 39
205 362 -352.836 195 156 117
206 362 -354.925 214 164 129
270 362 -341.904 110 67 33
89 361 -362.383 209 159 110
188 361 -356.78 97 61 29
189 361 -350.874 137 101 65
191 361 -280.591 187 146 116
192 361 -279.999 167 122 93
195 361 -263.767 138 91 47
196 361 -277.283 131 80 33
204 361 -349.818 140 106 68
205 361 -344.799 225 179 146
260 361 -258.5 122 87 47
186 360 -367.097 104 60 31
187 360 -354.622 124 81 49
188 360 -343.92 141 101 66
189 360 -344.038 160 121 82
191 360 -277.046 174 127 97
193 360 -269.145 147 101 68
195 360 -274.118 114 71 29
196 360 -273.361 114 67 21
203 360 -334.154 107 71 35
204 360 -339.658 176 131 98
186 359 -351.918 145 96 66
187 359 -343.671 179 133 100
188 359 -338.261 175 131 94
190 359 -270.743 178 128 93
191 359 -276.366 159 109 76
203 359 -326.62 169 129 93
204 359 -327.922 214 166 130
87 358 -329.73 192 138 91
183 358 -353.717 99 53 27
184 358 -346.957 133 84 54
185 358 -343.308 148 95 64
186 358 -337.756 173 120 88
187 358 -334.854 191 141 106
189 358 -249.065 186 134 97
190 358 -261.745 162 108 70
202 358 -336.417 128 94 57
203 358 -331.095 219 175 138
204 358 -329.239 225 171 133
87 357 -322 206 148 102
182 357 -348.069 106 60 34
183 357 -341.046 143 94 64
184 357 -333.665 189 134 104
185 357 -327.474 194 137 107
187 357 -246.456 208 155 123
188 357 -246.237 197 143 109
189 357 -248.117 179 123 86
190 357 -258.539 148 93 54
191 357 -257.862 135 81 43
201 357 -341.329 101 68 37
202 357 -335.589 182 142 106
203 357 -319.552 236 187 146
87 356 -320.071 216 157 115
158 356 -250.122 147 101 52
181 356 -340.004 105 61 32
182 356 -327.03 144 95 65
183 356 -327.428 172 117 87
187 356 -242.033 206 147 115
188 356 -243.891 174 115 81
189 356 -247.089 162 106 69
190 356 -249.267 141 88 48
191 356 -255.982 125 76 36
201 356 -322.709 157 116 86
202 356 -320.792 193 145 109
317 356 -321.339 87 50 34
318 356 -313.222 100 59 41
87 355 -313.317 227 165 126
155 355 -249.465 169 125 78
180 355 -338.31 102 63 32
181 355 -330.073 158 113 82
182 355 -314.143 188 135 104
183 355 -304.82 201 155 122
186 355 -237.831 198 135 104
187 355 -241.014 193 130 97
188 355 -244.037 159 99 63
189 355 -245.184 146 90 53
200 355 -311.357 107 70 41
201 355 -314.736 209 162 132
202 355 -310.795 213 159 123
30 354 -319.662 107 61 35
87 354 -311.082 235 172 137
179 354 -312.611 116 77 44
180 354 -313.166 165 122 90
181 354 -317.579 192 143 111
182 354 -300.303 196 147 115
183 354 -284.732 209 156 124
187 354 -233.016 174 108 74
188 354 -234.561 149 89 53
200 354 -307.194 137 93 64
201 354 -305.462 228 177 146
202 354 -298.862 220 165 124
19 353 -346.391 166 138 114
30 353 -307.405 110 67 35
177 353 -334.793 90 51 18
178 353 -314.767 123 83 48
179 353 -307.627 180 137 102
180 353 -300.563 201 155 119
183 353 -257.756 201 146 115
184 353 -244.117 191 127 92
185 353 -237.942 182 113 80
186 353 -233.859 168 99 68
187 353 -223.486 154 89 57
188 353 -232.194 133 77 42
199 353 -302.745 94 59 29
200 353 -296.534 167 131 97
201 353 -297.23 225 180 141
176 352 -318.517 116 71 42
177 352 -308.333 147 100 70
178 352 -306.61 178 129 96
179 352 -302.412 192 142 105
182 352 -235.842 183 130 88
184 352 -232.794 168 102 68
198 352 -303.123 99 64 34
199 352 -293.98 143 102 72
200 352 -287.686 190 145 112
174 351 -318.53 98 58 23
175 351 -307.552 127 82 51
176 351 -300.417 177 128 98
177 351 -295.454 196 145 114
178 351 -294.936 196 143 109
182 351 -228.039 173 116 73
183 351 -222.042 167 105 66
198 351 -291.479 102 65 36
199 351 -290.463 197 152 121
201 351 -216.38 231 170 139
85 350 -292.787 223 163 126
154 350 -221.924 135 98 45
173 350 -303.852 120 77 43
174 350 -300.135 141 94 64
175 350 -287.125 167 118 88
176 350 -285.017 198 147 118
177 350 -279.631 193 151 113
179 350 -216.302 198 151 107
180 350 -215.971 191 140 95
182 350 -225.589 160 102 62
183 350 -222.26 152 92 55
198 350 -280.181 140 99 71
199 350 -283.084 220 175 144
84 349 -286.224 215 153 114
85 349 -283.705 237 177 140
150 349 -215.743 161 121 62
151 349 -220.633 154 114 55
172 349 -300.946 109 66 31
173 349 -294.417 153 107 73
174 349 -283.809 180 129 98
175 349 -270.38 198 145 111
176 349 -266.25 203 155 117
178 349 -215.259 197 148 105
179 349 -209.131 189 140 97
180 349 -206.263 179 128 83
181 349 -211.5 167 114 72
182 349 -215.716 156 98 60
183 349 -216.59 139 81 44
197 349 -273.033 106 67 34
198 349 -275.747 199 153 127
199 349 -277.458 231 185 152
84 348 -283.546 226 164 125
148 348 -192.496 181 136 77
149 348 -194.441 169 124 65
150 348 -203.256 156 114 56
151 348 -207.163 147 107 48
171 348 -296.843 141 101 66
172 348 -292.087 153 107 71
173 348 -284.562 189 136 102
174 348 -272.094 190 133 104
175 348 -257.737 194 135 101
176 348 -205.5 202 146 109
177 348 -194.332 193 140 98
178 348 -199.039 182 131 88
179 348 -201.686 173 125 79
180 348 -199.036 165 114 71
181 348 -207.352 149 96 54
182 348 -211.514 134 79 40
196 348 -282.348 118 67 46
197 348 -270.569 154 102 80
198 348 -267.044 207 154 120
148 347 -186.514 169 127 67
149 347 -189.482 157 115 57
150 347 -198.366 146 106 47
170 347 -284.516 147 109 72
171 347 -280.067 194 150 115
172 347 -269.148 195 145 108
173 347 -254.492 207 153 115
175 347 -190.287 204 144 110
176 347 -192.558 222 164 126
177 347 -190.663 192 139 95
179 347 -197.632 150 103 57
180 347 -202.621 139 92 48
181 347 -208.466 126 77 36
196 347 -275.525 156 98 78
197 347 -270.936 218 160 138
198 347 -265.01 216 161 131
199 347 -190.728 233 180 140
147 346 -179.412 166 128 65
168 346 -279.684 127 89 50
169 346 -264.643 158 118 82
170 346 -266.614 193 149 112
171 346 -260.539 195 147 109
172 346 -241.955 222 169 129
173 346 -222.326 215 157 119
174 346 -184.529 223 158 126
175 346 -187.046 210 146 111
176 346 -185.108 201 143 103
177 346 -186.489 173 122 75
196 346 -262.914 182 117 97
197 346 -260.291 234 168 144
199 346 -190.57 227 173 129
143 345 -188.207 180 139 83
147 345 -168.136 157 122 58
167 345 -260.767 148 105 63
168 345 -264.176 186 141 102
169 345 -258.296 203 158 119
170 345 -256.195 206 158 120
172 345 -205.911 214 159 118
173 345 -192.039 204 144 108
174 345 -180.294 223 159 124
175 345 -183.715 191 127 91
176 345 -183.633 168 114 70
195 345 -263.791 153 92 64
196 345 -254.657 227 156 134
197 345 -235.753 236 182 144
141 344 -185.924 193 143 90
142 344 -190.227 181 135 83
143 344 -193.05 171 128 73
163 344 -258.965 120 82 46
164 344 -260.917 141 97 60
165 344 -259.425 165 117 77
166 344 -254.627 176 127 84
167 344 -256.123 191 140 97
168 344 -268.548 215 162 122
169 344 -256.595 211 157 119
171 344 -172.626 224 165 125
172 344 -182.383 220 161 121
174 344 -179.467 185 121 85
175 344 -179.268 171 109 70
176 344 -179.872 150 97 53
194 344 -250.683 135 82 51
195 344 -252.913 204 139 111
196 344 -249.195 225 151 124
197 344 -184.145 235 181 143
142 343 -185.544 174 127 75
143 343 -187.541 167 122 67
160 343 -280.127 110 76 38
161 343 -270.256 126 91 53
162 343 -261.82 151 111 76
163 343 -258.255 180 134 100
164 343 -260.07 209 159 122
165 343 -258.636 225 172 132
166 343 -252.126 221 163 123
167 343 -248.347 212 155 112
170 343 -175.065 219 157 116
171 343 -171.252 212 150 109
172 343 -169.486 209 147 108
173 343 -171.884 170 111 71
175 343 -175.349 150 92 54
194 343 -243.595 165 111 77
195 343 -241.278 227 161 129
197 343 -168.791 248 188 151
28 342 -208.441 221 186 146
29 342 -277.932 131 95 61
158 342 -259.189 130 88 46
159 342 -261.139 154 112 72
160 342 -253.006 162 123 84
161 342 -250.118 176 133 98
162 342 -245.254 191 145 111
163 342 -242.025 203 150 116
164 342 -240.699 202 146 109
165 342 -230.299 199 146 106
166 342 -216.078 217 162 123
168 342 -154.047 228 165 122
169 342 -158.988 205 140 98
170 342 -162.349 207 142 102
171 342 -161.709 184 121 80
172 342 -164.961 171 112 72
173 342 -169.5 150 95 56
193 342 -255.614 124 80 45
194 342 -239.418 186 128 91
195 342 -228.06 222 163 131
157 341 -247.948 141 96 54
158 341 -244.596 164 115 75
159 341 -238.978 199 150 110
160 341 -235.921 210 165 126
161 341 -233.87 209 161 125
162 341 -228.448 212 159 125
163 341 -221.024 229 180 137
164 341 -209.964 228 173 132
165 341 -190.1 223 165 125
166 341 -183.026 221 163 123
167 341 -156.871 213 154 110
168 341 -152.416 233 170 127
169 341 -154.771 194 129 87
170 341 -157.963 195 132 91
171 341 -155.691 170 111 71
193 341 -231.526 155 107 69
194 341 -227.258 205 145 108
201 341 -145.439 161 119 71
152 340 -249.994 136 97 54
153 340 -246.392 144 99 58
154 340 -241.065 147 102 61
155 340 -241.078 161 113 73
156 340 -234.818 186 134 95
157 340 -228.651 191 137 99
158 340 -230.55 212 157 118
159 340 -229.896 223 167 130
160 340 -223.728 218 166 129
161 340 -221.208 208 155 121
165 340 -160.306 208 156 109
166 340 -166.441 206 149 104
167 340 -151.975 200 139 94
168 340 -150.07 204 141 98
169 340 -149.233 180 117 74
170 340 -154.213 173 114 72
171 340 -151.522 149 96 54
192 340 -228.159 141 95 62
193 340 -223.692 191 137 99
194 340 -218.107 204 144 110
195 340 -158.361 220 154 128
152 339 -243.702 159 112 68
153 339 -232.158 176 124 84
154 339 -230.812 191 139 100
155 339 -226.763 213 159 121
156 339 -223.94 227 169 132
157 339 -216.199 225 165 129
158 339 -209.994 219 177 129
160 339 -140.919 242 187 148
161 339 -141.115 247 189 149
162 339 -141.629 234 179 138
163 339 -149.316 219 165 121
164 339 -151.134 212 158 112
165 339 -147.098 211 154 109
166 339 -148.624 200 142 96
167 339 -149.57 182 121 76
168 339 -152.996 170 109 65
170 339 -163.749 149 96 54
192 339 -217.357 162 112 79
193 339 -214.824 216 158 120
195 339 -143.476 236 170 144
81 338 -217.822 227 168 128
82 338 -221.01 238 176 135
148 338 -233.701 163 122 76
149 338 -233.498 175 132 87
150 338 -231.361 181 141 90
151 338 -227.856 188 144 95
152 338 -223.244 206 153 109
153 338 -218.158 204 146 106
154 338 -220.877 222 164 126
155 338 -211.762 211 148 113
160 338 -139.639 231 169 132
161 338 -145.207 219 157 118
162 338 -144.123 208 146 107
163 338 -143.872 203 141 100
164 338 -139.738 206 145 101
165 338 -139.229 203 142 98
166 338 -145.189 185 122 79
167 338 -147.172 166 105 61
191 338 -224.081 125 81 52
192 338 -215.19 187 133 99
193 338 -207.66 221 157 122
195 338 -136.279 221 156 128
81 337 -221.91 244 186 146
82 337 -217.499 249 190 148
146 337 -229.996 163 122 70
147 337 -227.678 169 127 77
148 337 -222.991 187 143 96
149 337 -221.847 207 160 114
150 337 -221 221 175 126
151 337 -218.733 234 184 135
152 337 -217.022 245 188 143
153 337 -207.373 243 184 142
154 337 -196.639 226 177 136
156 337 -135.613 243 188 147
157 337 -133.709 240 182 144
158 337 -132.264 231 171 134
159 337 -135.748 230 168 131
160 337 -144.78 218 154 116
161 337 -142.831 210 146 108
162 337 -138.775 205 143 102
163 337 -135.953 194 135 91
164 337 -134.082 186 127 83
165 337 -136.428 176 117 73
166 337 -141.895 160 101 57
167 337 -137.632 152 95 50
191 337 -208.832 161 115 82
192 337 -211.574 213 157 122
194 337 -134.685 213 149 121
81 336 -234.35 243 190 146
146 336 -216.399 182 135 83
147 336 -213.839 189 142 90
148 336 -208.826 203 155 106
149 336 -202.709 207 156 109
150 336 -196.435 201 150 103
151 336 -193.08 197 151 115
152 336 -190.718 205 157 119
157 336 -142.123 216 154 115
159 336 -134.35 213 149 111
160 336 -132.463 202 140 101
161 336 -131.849 190 132 92
162 336 -133.642 178 124 80
163 336 -134.752 168 117 70
164 336 -128.026 163 112 65
165 336 -123.142 152 104 55
190 336 -195.885 135 97 60
191 336 -201.582 201 148 114
192 336 -198.969 209 153 118
193 336 -133.738 231 164 137
194 336 -130.16 208 143 111
144 335 -201.058 190 143 89
145 335 -200.33 195 144 91
146 335 -199.49 196 145 92
147 335 -193.82 200 148 98
148 335 -189.021 203 156 112
149 335 -185.309 207 158 118
156 335 -139.502 211 152 108
157 335 -134.154 216 154 113
158 335 -129.562 212 149 108
159 335 -123.837 201 139 100
160 335 -121.068 184 126 86
161 335 -119.482 172 119 75
162 335 -121.283 160 112 64
190 335 -188.877 157 115 75
191 335 -187.892 220 171 130
193 335 -120.791 232 163 132
196 335 -127.326 176 125 80
154 334 -137.629 208 154 108
155 334 -134 208 150 102
156 334 -127.047 207 149 101
157 334 -119.41 206 145 100
158 334 -118.51 197 136 92
159 334 -119.105 181 122 80
160 334 -116.161 168 114 70
161 334 -113.539 159 108 63
162 334 -113.645 152 106 57
163 334 -116.181 138 94 45
188 334 -216.196 106 61 30
189 334 -205.521 135 86 53
190 334 -187.887 192 138 102
191 334 -179.255 219 170 129
193 334 -110.208 212 148 113
197 334 -102.478 160 111 68
153 333 -124.123 206 148 100
154 333 -122.209 204 146 96
155 333 -117.837 207 149 99
156 333 -113.03 199 141 91
157 333 -107.927 184 126 78
158 333 -105.477 175 117 71
159 333 -104.087 164 107 62
160 333 -105.115 156 105 60
188 333 -193.976 128 79 47
189 333 -186.527 187 134 100
190 333 -182.665 221 163 126
80 332 -155.597 249 199 148
151 332 -114.486 203 144 100
152 332 -110.905 206 148 100
153 332 -108.475 205 147 97
154 332 -110.82 197 139 89
155 332 -105.626 191 133 83
156 332 -97.4135 177 121 70
157 332 -94.9117 159 106 56
158 332 -92.9622 156 102 55
188 332 -180.235 164 109 78
189 332 -179.082 227 168 134
190 332 -182.641 222 160 123
191 332 -102.722 216 161 122
195 332 -103.373 178 125 81
78 331 -187.866 187 134 84
150 331 -104.172 196 137 93
151 331 -106.01 194 133 88
152 331 -100.142 195 134 87
153 331 -97.3731 193 133 83
154 331 -101.475 180 123 70
187 331 -186.65 132 77 47
188 331 -172.167 188 129 99
189 331 -169.696 226 166 132
191 331 -94.6355 223 169 125
78 330 -174.886 206 150 101
152 330 -91.9629 180 119 72
153 330 -89.6346 176 118 70
154 330 -90.3607 167 111 60
186 330 -188.302 125 72 41
187 330 -178.417 168 108 80
188 330 -164.989 199 135 107
189 330 -154.937 214 161 119
191 330 -85.212 213 159 113
29 329 -110.027 96 69 24
78 329 -164.385 209 151 103
186 329 -167.099 151 94 65
187 329 -158.335 190 126 98
188 329 -148.871 212 159 119
78 328 -162.304 228 167 122
186 328 -152.718 173 113 85
187 328 -148.525 212 146 120
78 327 -160.124 239 178 133
184 327 -173.324 111 65 32
185 327 -161.582 150 95 65
186 327 -146.739 196 135 107
187 327 -141.692 214 160 122
189 327 -66.2748 215 166 123
184 326 -145.711 136 86 53
185 326 -143.508 178 121 91
186 326 -137.091 207 143 115
187 326 -134.94 207 152 113
189 326 -64.9827 202 154 108
184 325 -134.05 170 116 82
185 325 -130.515 203 142 111
186 325 -123.317 216 162 124
76 324 -160.811 183 119 84
183 324 -137.826 140 92 56
184 324 -124.355 193 135 98
185 324 -122.175 217 164 124
187 324 -49.4014 219 166 126
76 323 -159.607 193 129 94
182 323 -137.101 129 83 47
183 323 -129.27 165 113 76
184 323 -118.252 204 142 105
185 323 -114.966 213 158 119
187 323 -39.7557 210 155 114
76 322 -155.954 200 136 101
182 322 -123.926 157 109 73
183 322 -118.856 188 132 95
184 322 -113.382 204 140 102
76 321 -146.065 207 143 107
182 321 -114.66 185 133 96
183 321 -109.776 207 151 114
181 320 -113.648 145 92 61
182 320 -102.001 191 137 103
183 320 -99.4274 210 148 107
185 320 -27.121 214 161 119
189 320 -32.4654 165 122 69
190 320 -30.8714 150 113 60
191 320 -34.8262 138 105 52
192 320 -36.2191 126 94 43
180 319 -101.715 144 91 60
181 319 -102.572 185 130 100
182 319 -96.8842 207 151 118
183 319 -87.2513 212 147 107
185 319 -21.0623 211 158 116
187 319 -26.849 183 131 84
188 319 -29.2099 171 124 72
189 319 -27.6147 163 120 67
190 319 -27.1499 150 110 59
191 319 -30.6389 137 101 53
192 319 -29.1803 123 89 43
180 318 -98.5956 188 135 103
181 318 -94.7655 205 151 117
182 318 -85.3001 207 145 108
185 318 -18.8526 202 149 107
186 318 -16.9827 186 132 88
187 318 -19.9113 176 124 77
188 318 -21.6333 166 116 67
189 318 -21.0417 157 111 61
190 318 -20.3733 144 102 52
191 318 -24.628 131 90 44
179 317 -97.1837 167 113 77
180 317 -88.9518 211 157 121
181 317 -81.5966 202 148 110
184 317 -19.6745 198 146 106
185 317 -15.1561 193 140 98
186 317 -13.2941 180 127 85
187 317 -14.4421 171 118 74
188 317 -14.2634 159 108 61
189 317 -13.7987 147 99 51
178 316 -75.1895 129 90 49
179 316 -78.6465 184 128 91
180 316 -76.1011 206 151 112
181 316 -68.2546 205 149 116
186 316 -7.66706 172 121 78
187 316 -8.5968 162 111 68
188 316 -9.16992 149 98 55
224 316 -70.372 162 106 69
290 316 -117.939 121 73 53
28 315 17.0136 163 134 102
176 315 21.2553 103 67 31
178 315 -74.3805 177 119 82
179 315 -73.2086 210 155 116
180 315 -68.7937 208 155 121
187 315 -7.67447 150 98 58
224 315 -62.5703 166 108 71
290 315 -99.9089 140 87 69
291 315 -93.2436 138 91 73
28 314 29.2142 164 133 102
176 314 32.9451 105 69 33
177 314 -79.5142 160 99 68
178 314 -69.716 208 150 113
179 314 -70.2461 224 169 128
180 314 -74.3974 209 156 112
224 314 -59.1521 167 109 72
28 313 37.5887 164 131 100
176 313 -86.2771 139 80 50
177 313 -67.5534 191 130 99
178 313 -62.2693 219 163 126
179 313 -64.7092 209 156 114
183 313 -0.489293 173 124 84
266 313 -61.9354 198 140 100
29 312 -38.3658 95 65 29
176 312 -64.7165 169 110 80
177 312 -57.763 202 143 111
178 312 -53.0733 204 150 112
180 312 9.49207 202 155 113
182 312 7.11126 181 132 92
183 312 10.7932 168 119 78
223 312 -49.488 167 114 74
224 312 -48.7973 178 118 81
76 311 -63.4859 240 176 140
175 311 -65.9708 144 91 60
176 311 -52.2064 197 138 108
177 311 -46.4352 206 147 115
179 311 16.6549 202 155 113
180 311 13.7 199 150 109
181 311 15.9596 190 141 100
182 311 19.0102 174 125 84
183 311 21.4893 164 117 75
222 311 -44.412 157 105 65
223 311 -41.6816 174 121 79
75 310 -60.5741 222 164 127
76 310 -56.1629 253 191 154
174 310 -64.769 126 75 44
175 310 -51.797 176 123 92
176 310 -42.7182 213 154 124
177 310 -36.967 213 159 113
179 310 25.2445 204 155 114
180 310 17.0194 190 141 98
181 310 23.474 183 134 91
182 310 25.1149 163 116 72
183 310 25.4808 156 109 65
222 310 -39.5302 164 111 69
223 310 -37.2881 178 123 82
262 310 -25.7993 189 141 95
301 310 45.2098 126 80 65
302 310 36.3677 103 66 48
303 310 26.7099 89 61 40
75 309 -51.5901 223 165 128
76 309 -52.2142 255 195 158
174 309 -44.1158 165 114 83
175 309 -39.4845 202 147 117
176 309 -32.3854 213 159 115
178 309 36.5123 210 158 119
179 309 29.7519 199 147 107
180 309 26.4079 188 140 94
181 309 30.9721 175 128 82
182 309 29.5596 156 109 63
222 309 -34.4307 166 118 72
223 309 -31.604 180 126 82
303 309 49.0763 120 83 64
173 308 -37.9778 155 101 65
174 308 -34.3133 213 156 126
175 308 -30.0971 215 155 127
176 308 -19.5335 212 154 114
178 308 43.5303 198 146 109
179 308 32.7604 189 140 99
180 308 35.0991 185 138 92
181 308 39.4515 169 125 76
182 308 36.7613 151 107 58
221 308 -26.5758 160 107 63
222 308 -25.8702 177 123 77
223 308 -23.2554 184 130 84
306 308 50.6814 107 82 51
172 307 -61.0055 131 77 39
173 307 -32.0031 201 145 108
174 307 -26.6973 237 178 146
175 307 -22 208 153 112
178 307 48.7674 200 147 113
179 307 43.4535 190 141 101
180 307 40.9519 174 130 83
181 307 43.5949 158 116 66
221 307 -20.8711 165 111 67
222 307 -18.9813 184 127 82
172 306 -40.5066 173 115 77
173 306 -21.5266 215 152 117
174 306 -15.4073 221 166 127
176 306 58.0477 217 163 129
177 306 52.3329 196 139 109
178 306 53.711 193 140 108
179 306 51.6685 177 129 91
180 306 47.3505 153 110 65
221 306 -18.45 163 118 76
222 306 -15.7789 182 125 80
305 306 -7.82243 120 68 54
171 305 -39.0378 160 107 67
172 305 -21.6259 206 147 107
173 305 -9.83526 211 157 121
174 305 -1.56775 215 160 121
176 305 60.3446 212 158 120
177 305 57.8929 191 137 103
178 305 58.2564 179 129 94
179 305 56.0265 161 116 75
221 305 -13.0623 169 122 78
222 305 -8.55932 184 126 80
170 304 -42.3688 134 85 45
171 304 -16.1315 177 121 84
172 304 -9.41829 226 168 130
173 304 -0.404649 212 160 123
175 304 66.2221 213 160 120
176 304 65.1539 203 151 111
177 304 62.3612 181 132 91
178 304 62.2873 164 117 75
309 304 -22.9729 144 78 62
169 303 -20.576 143 98 59
170 303 -8.80758 173 121 82
171 303 1.64961 198 143 104
172 303 0.364003 218 159 119
174 303 72.6499 218 163 124
175 303 70.5683 202 147 108
176 303 71.1422 187 136 93
255 303 56.7195 140 95 40
28 302 -32.0517 226 177 144
169 302 -4.74181 171 121 84
170 302 4.51071 205 149 112
171 302 10.1101 208 161 117
174 302 77.4442 204 151 109
175 302 79.0646 186 133 91
176 302 81.2436 178 127 84
254 302 75.8188 149 99 46
310 302 21.8768 100 32 21
318 302 89.3441 110 68 52
28 301 -30.9344 225 179 145
76 301 79.5095 238 179 135
168 301 -20.2247 159 111 73
169 301 3.47902 205 151 113
170 301 13.2582 217 159 121
171 301 17.7963 198 149 106
174 301 78.6867 188 137 94
175 301 90.1167 183 132 89
176 301 90.7441 172 123 80
177 301 91.9964 152 108 63
253 301 87.9405 142 92 41
319 301 87.9126 130 80 69
28 300 110.956 230 183 141
76 300 83.1097 241 180 136
167 300 -7.69696 152 107 68
168 300 -2.87097 208 156 119
169 300 11.2553 220 162 125
170 300 23.6404 218 167 124
172 300 84.924 210 159 116
173 300 90.9681 201 150 107
174 300 90.2366 188 137 92
175 300 93.5758 175 127 81
176 300 97.0287 163 116 70
319 300 82.0457 148 85 76
320 300 83.8617 136 86 79
28 299 102.751 237 189 149
76 299 86.076 237 176 132
165 299 114.811 122 78 41
166 299 -12.59 138 96 56
167 299 9.23491 190 141 101
168 299 17.7326 224 168 131
169 299 24.3128 212 152 116
170 299 40.6383 214 161 119
171 299 96.1249 214 161 119
172 299 96.7261 217 166 123
173 299 99.2681 205 154 111
174 299 97.8379 181 133 87
175 299 93.2377 162 115 69
322 299 94.546 145 98 88
76 298 92.3297 233 172 128
165 298 -6.05124 134 95 54
166 298 3.62057 167 122 81
167 298 24.3164 200 148 109
168 298 32.2172 221 169 129
169 298 38.0891 211 158 116
171 298 105.471 223 169 125
172 298 103.474 218 165 123
173 298 101.637 189 140 97
174 298 100.818 168 121 75
163 297 98.6769 129 84 42
165 297 28.1431 168 124 85
166 297 30.3871 189 140 100
167 297 44.6415 217 165 125
168 297 46.4057 227 176 133
170 297 111.294 229 170 128
171 297 108.134 210 153 110
172 297 108.255 205 152 110
173 297 108.145 170 121 78
165 296 41.0888 190 141 101
166 296 46.6176 211 156 117
167 296 56.5 214 161 119
170 296 118.51 221 159 118
171 296 114.246 197 138 98
172 296 114.777 193 140 100
173 296 115.419 161 112 71
246 296 103.926 182 134 85
247 296 96.7445 158 108 59
163 295 13.9645 144 99 58
164 295 36.8933 180 131 91
165 295 48.3036 211 157 119
166 295 51.7653 216 158 118
170 295 125 204 142 101
171 295 120.968 187 129 89
172 295 122.074 180 126 88
245 295 110.577 181 135 85
246 295 108.455 166 118 69
163 294 37.7831 190 138 98
164 294 44.2477 218 163 124
165 294 54.2801 222 164 126
166 294 59.942 215 158 115
168 294 129.763 216 154 115
170 294 126.137 197 135 94
171 294 123.459 182 124 86
172 294 125.329 166 112 76
161 293 21.3379 137 88 47
162 293 46.5192 183 131 91
163 293 57.0064 221 166 127
164 293 58.287 227 169 131
165 293 64.3331 219 159 122
167 293 126.79 214 154 120
168 293 130.325 205 143 104
169 293 130.231 195 133 92
170 293 129.612 190 131 91
171 293 127.626 168 113 74
172 293 127.761 153 100 66
161 292 41.3128 177 124 84
162 292 55.5 214 159 120
163 292 67.6442 226 168 130
164 292 71.4601 222 164 126
166 292 129.183 216 157 125
167 292 135.687 212 152 118
168 292 136.037 199 140 100
169 292 137.396 187 128 86
170 292 137.108 175 117 77
216 292 65.4433 168 114 76
159 291 25.3768 132 83 43
160 291 52.287 176 123 83
161 291 60.7317 208 153 114
162 291 67.7968 221 161 124
163 291 77.4967 216 163 121
165 291 135.728 218 159 125
166 291 140.506 222 161 130
167 291 143.111 201 141 107
168 291 145.071 191 132 92
169 291 146.337 175 118 75
170 291 146.83 163 108 67
285 291 99.544 107 70 43
159 290 51.4312 173 121 82
160 290 62.9611 203 148 109
161 290 75.4994 220 161 121
162 290 81.7302 209 160 117
164 290 141.136 219 161 123
165 290 144.662 227 167 133
166 290 149.171 216 155 124
167 290 149.5 189 129 95
168 290 155.77 175 116 76
169 290 156.299 164 107 64
240 290 146.287 172 119 75
241 290 147.74 162 109 65
242 290 142.5 150 95 54
158 289 63.4418 172 123 83
159 289 69.0585 205 151 113
160 289 75.4646 203 148 109
161 289 87.1372 207 162 120
162 289 94.2571 201 154 110
164 289 147.469 220 165 124
165 289 151.244 217 159 122
166 289 158.454 202 143 109
167 289 159.576 176 118 81
214 289 78.151 172 119 75
215 289 82.923 173 122 79
239 289 155.45 175 121 75
240 289 151.806 161 107 63
330 289 108.488 139 92 64
157 288 58.5051 167 113 75
158 288 75.2184 198 142 109
159 288 84.9573 214 158 123
160 288 92.1264 201 153 107
161 288 100.733 214 165 122
163 288 150.313 205 152 108
164 288 157.648 206 153 109
165 288 163.923 199 146 104
166 288 164.788 178 127 84
214 288 87.2171 173 120 78
237 288 165.112 190 133 90
238 288 161.068 180 123 80
239 288 160.201 163 106 63
156 287 66.072 179 121 84
157 287 78.4541 198 139 105
158 287 95.4739 205 146 114
159 287 99.3795 214 166 117
160 287 108.839 216 165 118
163 287 163.791 202 150 103
164 287 168.53 193 142 95
165 287 171.797 172 124 78
349 287 80.7314 123 89 77
29 286 86.3619 216 174 132
155 286 76.0381 177 117 80
156 286 83.046 210 150 114
157 286 100.121 215 155 121
158 286 110.393 224 177 125
159 286 113.916 225 178 126
161 286 172.005 213 161 113
162 286 173.408 205 153 105
163 286 168.965 199 147 99
164 286 172 180 130 81
29 285 92.5968 216 174 132
154 285 92.9611 184 124 87
155 285 93.6462 211 149 112
156 285 100.439 227 165 128
157 285 114.539 231 181 128
158 285 125.806 221 174 120
160 285 173.942 215 163 115
161 285 184.653 214 161 109
162 285 179.372 206 155 102
163 285 174.165 193 141 91
164 285 176.872 171 121 70
234 285 175.448 180 123 80
235 285 175.546 164 107 64
352 285 208.717 112 64 50
30 284 204.01 107 76 32
153 284 90.2201 177 117 80
154 284 102.916 209 147 110
155 284 107.62 229 167 130
156 284 111.156 228 166 129
157 284 125.272 229 178 125
159 284 171.728 217 169 123
160 284 181.889 206 154 104
161 284 192.109 216 163 109
162 284 186.316 196 145 90
163 284 184.098 178 127 74
164 284 187.017 161 111 60
232 284 177.844 194 131 88
233 284 183.974 185 124 80
234 284 184.954 170 108 67
151 283 102.547 178 123 84
152 283 98.015 191 131 94
153 283 106.567 204 142 103
154 283 116.875 222 160 121
155 283 118.823 228 166 127
156 283 123.529 216 163 113
157 283 153.11 224 173 120
158 283 178.829 213 164 121
159 283 183.533 214 163 118
160 283 187.185 196 145 92
161 283 198.706 219 168 113
162 283 195.332 181 132 76
232 283 190.291 179 114 72
148 282 98.9844 168 121 77
149 282 97.3546 184 132 92
150 282 99.5644 193 138 99
151 282 104.975 219 160 120
152 282 113.385 244 182 141
153 282 123.335 238 176 135
154 282 129.294 236 179 134
155 282 129.934 224 168 121
157 282 180.601 213 165 119
158 282 187.25 210 159 116
159 282 190.866 199 148 103
160 282 197.334 187 137 86
161 282 206.311 202 152 99
162 282 203 165 118 64
145 281 123.82 171 131 80
146 281 120.138 179 137 89
147 281 116.368 191 144 98
148 281 113.411 206 155 110
149 281 113.861 217 163 119
150 281 120.095 215 158 115
151 281 124.244 231 169 128
152 281 128.827 234 173 129
153 281 133.051 223 162 118
154 281 136.744 211 157 113
156 281 188.539 208 162 112
157 281 191.961 205 157 109
158 281 196.924 203 152 107
159 281 202.032 188 137 92
160 281 206.645 177 129 80
161 281 216.118 173 127 75
142 280 123.831 174 132 84
143 280 126.48 179 137 89
144 280 128.297 184 142 92
145 280 122.652 194 150 101
146 280 119.949 205 159 110
147 280 125.161 214 166 120
148 280 125.48 228 175 131
149 280 131.084 227 170 125
150 280 138.652 225 166 122
151 280 143.779 225 171 127
152 280 145.407 226 173 131
154 280 203.811 218 177 121
155 280 202.147 215 172 119
156 280 199.284 202 156 106
157 280 204.615 197 149 101
158 280 211.633 191 140 93
159 280 212.988 181 133 85
160 280 219.288 169 125 76
140 279 135.465 180 133 87
141 279 133.787 185 138 92
142 279 131.003 192 148 101
143 279 130.546 201 157 110
144 279 131.568 206 160 111
145 279 130.217 209 163 114
146 279 128.438 214 166 118
147 279 136.82 220 168 121
148 279 144.565 223 169 123
149 279 152.74 229 170 128
150 279 156.09 232 175 132
154 279 205.227 215 172 117
155 279 206.175 207 162 107
156 279 208.291 195 149 97
157 279 215.253 190 142 93
158 279 222.029 183 135 86
159 279 222.067 175 129 80
135 278 142.174 179 137 87
138 278 138.605 190 142 96
139 278 136.153 193 145 99
140 278 136.18 204 155 112
141 278 138.701 206 157 114
142 278 138.918 213 164 121
143 278 139.23 222 173 130
144 278 135.688 231 180 135
145 278 144.459 226 173 129
146 278 151.602 226 172 126
147 278 155.988 237 180 135
148 278 161.163 244 185 141
150 278 185.068 240 181 137
152 278 205.458 224 183 127
153 278 208.217 214 171 116
154 278 212.139 207 164 109
155 278 215.602 201 156 101
156 278 217.922 190 144 92
157 278 222.838 177 131 81
158 278 227.459 162 116 66
133 277 146.752 187 145 95
134 277 147.334 189 147 97
135 277 143.872 192 148 99
136 277 141.884 197 151 102
137 277 147.119 202 154 108
138 277 148.681 207 156 111
139 277 148.196 208 157 112
140 277 145.5 218 167 124
141 277 147.583 217 166 123
142 277 151.047 218 167 124
143 277 151.95 226 173 131
144 277 153.686 232 179 137
145 277 154.085 228 174 130
150 277 199.435 241 182 138
151 277 215.888 223 177 125
152 277 216.752 217 172 117
153 277 221.811 206 161 106
154 277 223.546 198 153 98
155 277 222.775 188 143 88
156 277 223.205 175 129 77
157 277 223.022 160 114 62
30 276 150.743 204 165 124
132 276 151.674 193 149 104
133 276 152.804 199 155 108
134 276 152.03 203 159 112
135 276 150.058 207 160 114
136 276 148.441 215 167 121
137 276 151.785 223 172 129
138 276 154.703 225 174 131
139 276 157.454 223 170 128
140 276 156.955 230 177 137
141 276 160.866 227 174 134
142 276 164.47 220 175 133
148 276 202.01 245 184 139
149 276 213.33 232 171 126
150 276 213.09 230 171 127
151 276 226.5 219 169 120
152 276 227.517 209 162 110
153 276 233.296 199 152 100
154 276 230.854 187 142 87
155 276 227.56 175 130 75
156 276 227.942 161 118 63
30 275 163.248 203 161 121
132 275 158.439 202 158 113
133 275 157.765 210 163 119
134 275 157.742 217 170 124
135 275 157.262 223 175 129
136 275 159.465 225 174 131
137 275 159.924 229 178 135
138 275 160.491 231 178 136
139 275 165.152 227 174 132
148 275 220.623 227 173 126
149 275 230.37 226 172 125
150 275 231.032 222 168 121
151 275 232.785 208 156 108
152 275 236.697 205 153 103
153 275 239.736 192 142 91
154 275 236.516 177 130 76
155 275 232.065 164 119 64
79 274 256.304 213 155 109
127 274 155.419 215 161 125
128 274 158.373 215 163 124
129 274 159.239 215 166 126
130 274 162.123 215 166 125
131 274 163.8 214 165 124
132 274 163.926 216 167 126
133 274 163.121 221 172 131
134 274 165.537 226 177 134
135 274 168.737 231 180 137
146 274 241.561 238 182 135
147 274 236.839 231 175 128
148 274 237.025 223 166 121
149 274 240.902 220 163 118
150 274 241.675 218 162 115
151 274 241.635 205 149 102
152 274 246.24 193 140 90
153 274 245.696 179 127 77
154 274 240.109 160 113 59
79 273 267.872 205 146 102
80 273 268.066 236 178 138
127 273 166.756 227 168 134
128 273 169.666 222 166 129
129 273 167.76 223 169 131
130 273 166.756 223 171 132
131 273 167.891 224 172 132
132 273 167.891 224 175 134
133 273 169.334 227 178 137
145 273 250.416 234 178 131
146 273 248.55 227 171 124
147 273 243.123 221 163 117
148 273 251.084 216 158 112
149 273 246.41 214 156 110
150 273 245.184 206 148 102
151 273 246.744 185 129 82
152 273 255.778 175 121 74
80 272 280.48 225 169 122
145 272 250.074 223 166 121
146 272 251.03 216 160 113
147 272 252.344 209 153 104
148 272 256.115 206 150 101
149 272 256.007 201 145 96
150 272 255.13 187 131 84
80 271 280.728 215 157 109
142 271 253.871 226 172 125
143 271 252.338 224 170 123
144 271 256.128 217 163 117
145 271 258.562 214 160 114
146 271 260.074 208 155 105
147 271 260.516 203 147 96
148 271 264.36 197 141 90
149 271 263.795 189 133 84
80 270 276.158 205 147 97
140 270 256.584 225 172 122
141 270 258.543 225 173 123
142 270 261.966 221 169 119
143 270 260.971 215 163 113
144 270 264.354 209 157 107
145 270 266.833 204 152 102
146 270 268.126 198 147 94
147 270 269.736 191 138 86
148 270 269.054 182 129 77
81 269 272.28 223 165 115
82 269 286.011 255 203 158
138 269 262.614 220 167 117
139 269 263.867 219 168 115
140 269 266.268 221 170 117
141 269 267.741 219 170 114
142 269 269.284 208 161 105
143 269 268.984 197 150 96
144 269 271.595 195 148 94
145 269 275.097 192 142 89
146 269 278.518 184 135 79
82 268 297.741 241 184 139
136 268 269.857 218 165 115
137 268 270.434 218 165 113
138 268 271.967 215 164 109
139 268 273.363 211 162 106
140 268 273.676 207 160 104
141 268 275.864 202 157 98
142 268 275.418 189 147 87
82 267 311.197 225 169 122
83 267 315.415 255 204 162
134 267 278.822 217 161 114
135 267 280.338 213 160 110
136 267 278.385 213 160 108
137 267 278.167 211 160 105
138 267 281.02 207 158 100
139 267 280.046 197 151 92
140 267 279.088 188 143 84
82 266 319.526 216 162 116
83 266 317.486 255 206 163
129 266 281.181 216 163 121
130 266 282.917 217 162 121
131 266 283.454 216 162 118
132 266 284.656 216 162 116
133 266 288.344 214 160 113
134 266 289.84 207 154 104
136 266 288.323 200 149 96
137 266 285.338 197 148 92
82 265 325.875 213 159 112
83 265 317.742 253 202 159
128 265 284.769 209 158 113
129 265 288.313 210 159 114
130 265 291.516 211 158 114
131 265 292.622 210 158 111
132 265 295.198 211 159 111
133 265 299.339 207 155 105
82 264 330.056 212 158 112
83 264 319.139 244 193 150
129 264 295.621 201 153 105
130 264 301.787 206 155 108
131 264 304.366 204 154 105
82 263 333.111 212 158 112
83 263 322.377 244 193 150
33 262 199.194 102 81 38
82 262 341.146 199 147 100
83 262 327.799 235 184 141
32 261 275.659 172 137 99
37 260 291.522 77 51 14
44 259 312.364 104 84 34
45 259 311.041 115 89 40
54 259 330.109 125 87 42
84 259 345.49 243 190 148
44 258 320.748 117 90 45
46 258 297.498 137 97 48
70 258 334.155 121 95 36
83 258 332.395 174 123 78
84 258 347.804 241 187 143
85 258 356.549 255 203 159
84 257 357.396 233 179 135
257 257 342.419 205 155 128
54 256 383.73 242 204 155
246 256 328.631 136 68 47
247 256 331.576 132 68 41
261 256 348.24 150 100 77
245 255 335.017 146 78 57
246 255 337.879 147 83 58
247 255 345.09 151 87 62
239 254 316.855 189 117 92
266 254 349.162 185 126 96
267 254 351.474 177 120 90
269 254 389.706 126 75 46
288 254 383.5 97 42 22
290 254 264.568 105 54 35
238 253 316.206 215 144 116
239 253 316.256 248 178 152
269 253 379.453 195 142 110
270 253 372.695 171 120 91
271 253 373.085 132 86 60
237 252 293.035 242 171 141
270 252 369.076 237 182 152
271 252 362.589 213 166 136
272 252 370.016 187 151 119
273 252 375.114 167 132 102
274 252 374.672 155 113 88
275 252 374.856 147 99 77
278 252 392.078 122 64 52
279 252 405.077 103 45 33
287 252 320.591 173 126 108
288 252 327.763 202 151 134
289 252 351.439 237 184 166
290 252 350.943 216 164 142
291 252 362.109 197 146 125
292 252 363.457 185 134 113
293 252 379.272 169 118 97
299 252 372.465 107 73 46
312 252 368.076 104 53 32
28 251 373.206 193 150 108
235 251 299.239 238 162 128
283 251 379.922 116 63 47
300 251 378.128 142 103 74
30 250 384.895 182 135 93
234 250 413.333 214 125 91
282 250 372.186 207 149 135
283 250 375.544 190 134 119
284 250 377.74 142 86 69
285 250 380.994 124 68 51
286 250 385.018 114 57 40
287 250 400.043 105 48 31
291 250 294.239 89 35 11
292 250 314.637 106 56 29
293 250 321.069 110 62 39
295 250 335.352 158 116 94
296 250 338.966 176 133 114
297 250 342.93 202 160 138
298 250 336.1 207 163 138
299 250 339.877 200 156 127
35 249 292.785 208 154 108
233 249 410.194 220 131 97
234 249 419.589 222 133 99
285 249 386.352 192 135 118
286 249 382.352 178 121 102
287 249 400.51 178 123 103
288 249 398.903 165 113 92
295 249 336.906 95 54 32
296 249 321.091 109 62 44
27 248 297.245 178 134 87
44 248 322.878 210 152 115
47 248 431.456 223 167 132
92 248 396.163 242 182 132
93 248 396.348 252 192 140
94 248 392.666 255 194 139
95 248 387.53 255 201 145
96 248 386.374 255 201 148
232 248 391.294 176 92 58
233 248 401.877 191 105 72
234 248 405.035 186 100 67
286 248 326.061 212 157 136
290 248 390.962 227 176 149
291 248 380.312 207 162 129
292 248 407.63 164 113 84
293 248 410.6 161 110 81
294 248 413.333 126 76 49
295 248 404.478 105 55 28
32 247 430.918 189 142 96
71 247 378.314 206 148 110
92 247 397.268 210 150 96
93 247 396.889 218 157 102
94 247 398.77 229 169 109
95 247 403.643 250 189 132
96 247 403.174 250 190 136
97 247 397.124 251 193 145
98 247 394.167 253 194 150
144 247 393.258 176 117 73
145 247 394.489 174 115 71
146 247 398.624 179 118 74
147 247 401.77 183 120 77
148 247 404.435 181 118 74
149 247 408.043 178 114 70
227 247 370.53 207 134 101
234 247 400.046 166 82 48
235 247 402.341 183 99 65
291 247 366.162 209 163 127
292 247 424.276 183 130 99
293 247 413.752 193 142 111
294 247 410.938 165 116 84
295 247 422.185 146 97 67
296 247 428.893 136 86 59
32 246 419.517 175 134 88
95 246 424.679 219 163 102
96 246 427.042 227 168 112
97 246 413.262 235 175 125
98 246 411.687 244 183 138
99 246 413.745 249 187 146
