ply
format ascii 1.0
element vertex 1710
property float x
property float y
property float z
property uchar red
property uchar green
property uchar blue
end_header
258 605 -1832.83 149 137 139
289 605 -1828.65 207 205 208
290 605 -1821.12 164 164 174
441 605 -1771.37 56 50 62
442 605 -1738.92 66 75 72
3 604 -1786.96 110 105 111
269 604 -1760.88 121 101 110
270 604 -1760.61 130 113 119
289 604 -1827.39 216 216 216
441 604 -1770.48 56 48 59
406 603 -1782.04 76 66 75
441 603 -1759.95 57 49 60
30 602 -1766.51 195 167 163
281 602 -1755.01 142 130 134
282 602 -1759.26 190 180 181
441 602 -1737.02 50 54 53
442 602 -1750.3 68 54 69
273 601 -1787.94 90 80 68
282 601 -1747.22 205 193 195
406 601 -1807.09 85 83 84
441 601 -1717.4 49 53 52
442 601 -1749.17 68 54 67
6 600 -1762.41 128 118 108
32 600 -1735.3 169 146 138
274 600 -1782.46 84 76 65
281 600 -1747.52 194 178 181
282 600 -1741.68 232 213 217
290 600 -1814.1 226 229 236
404 600 -1727.47 66 64 67
406 600 -1802.81 70 68 69
267 599 -1786.5 187 159 173
281 599 -1739.24 202 181 186
282 599 -1735.29 241 218 224
290 599 -1805.96 220 220 230
404 599 -1711.04 91 89 94
406 599 -1789.59 56 54 55
282 598 -1727.32 207 180 185
290 598 -1798.19 197 195 206
404 598 -1703.72 102 101 106
282 597 -1718.79 140 114 117
283 597 -1725 173 147 150
290 597 -1789.27 181 180 188
360 597 -1781.91 61 53 51
3 596 -1734.59 149 128 127
286 596 -1707.21 217 190 199
290 596 -1782.1 175 173 178
294 596 -1787.66 108 104 105
360 596 -1770.87 65 55 56
284 595 -1782.96 84 67 60
290 595 -1761.86 144 142 145
290 594 -1740.27 112 99 117
291 594 -1725.76 105 94 108
286 593 -1720.14 95 69 78
287 593 -1729.46 91 67 80
287 592 -1723.18 94 79 86
403 592 -1703.8 68 65 84
405 592 -1641.57 80 87 97
403 591 -1700.81 77 73 96
403 590 -1694.47 83 79 102
404 590 -1703.04 118 114 139
278 587 -1686.47 111 106 110
404 586 -1626.86 88 87 92
394 584 -1710.49 113 71 83
370 583 -1679.07 60 55 59
394 583 -1703.2 114 76 87
283 582 -1687.31 162 149 143
394 582 -1697.32 116 83 92
394 581 -1690.38 104 78 87
394 580 -1679.83 78 59 65
391 579 -1584.79 71 53 53
392 579 -1591.23 79 67 67
391 578 -1591.5 70 58 58
392 578 -1593.27 77 72 69
391 577 -1594.06 81 52 72
392 577 -1592.85 80 59 78
391 576 -1592.67 83 55 70
319 571 -1618.5 98 78 79
366 568 -1610.08 71 65 67
389 568 -1613.78 71 48 54
366 567 -1601.21 71 65 67
315 566 -1547.48 97 86 90
323 566 -1552.96 75 63 65
315 565 -1543.92 100 89 93
323 565 -1545 75 63 65
368 565 -1548.78 61 62 67
315 564 -1540.92 95 84 88
348 564 -1542.08 43 27 37
368 564 -1547.37 67 66 74
315 563 -1536.55 93 81 85
315 562 -1531.31 93 80 87
351 562 -1567.36 77 76 72
368 562 -1534.18 85 83 94
368 561 -1526.97 115 109 121
368 560 -1523.13 129 112 128
298 559 -1505.58 123 110 104
356 559 -1500.2 78 71 78
368 559 -1517.26 125 107 123
356 558 -1499.62 83 73 82
368 558 -1513.71 103 86 102
355 557 -1505.54 88 78 86
364 557 -1559.09 129 119 127
385 557 -1546.73 58 39 45
355 556 -1493.33 90 79 87
364 556 -1549.15 115 108 115
365 555 -1492.39 59 50 69
369 555 -1470.33 54 51 60
383 553 -1533.4 68 68 66
325 552 -1512.09 92 87 83
355 552 -1444.06 74 63 67
358 552 -1503.71 46 45 41
342 543 -1459.54 51 44 38
342 542 -1454.26 49 44 38
279 530 -1393.5 179 153 154
279 529 -1389.65 166 142 142
277 528 -1366.63 192 170 173
342 528 -1394.88 70 65 59
342 527 -1245.73 65 66 61
317 526 -1357.32 146 126 125
342 526 -1249.91 66 67 62
317 525 -1346.5 143 125 123
271 523 -1348.69 186 167 169
272 523 -1344.88 140 127 121
274 523 -1273.06 142 127 132
275 523 -1272.76 151 136 141
270 522 -1338.61 228 209 213
271 522 -1339.98 174 155 157
271 521 -1334.7 176 160 161
323 521 -1320.26 95 85 75
270 520 -1327.57 244 232 234
271 520 -1330.51 193 181 181
319 520 -1218.34 112 113 95
316 518 -1337.76 123 116 108
317 518 -1199.11 106 106 94
307 516 -1298.29 178 163 168
314 516 -1301 116 107 98
315 516 -1305.8 99 93 81
310 515 -1273 176 160 161
308 514 -1206.8 188 173 176
308 513 -1195.35 160 149 147
310 513 -1302.77 101 89 89
307 512 -1272.88 98 89 92
309 512 -1289.8 77 71 71
310 512 -1300.4 62 57 51
306 511 -1272.09 108 98 97
307 511 -1273.44 65 56 57
309 511 -1274.73 50 47 42
306 510 -1264.6 81 74 68
307 510 -1273.48 60 53 47
344 510 -1236.88 60 58 61
303 509 -1255.36 118 104 91
304 509 -1256.85 94 85 70
344 509 -1235.04 76 64 68
303 508 -1244.2 93 80 63
344 508 -1237.16 80 67 74
344 507 -1237.98 70 59 65
342 506 -1188.9 88 86 87
341 505 -1175.24 72 71 69
342 505 -1180.3 95 93 94
324 494 -1174.15 129 120 123
326 494 -1110.29 57 55 58
324 493 -1164.12 134 123 127
325 493 -1146.71 84 75 78
314 492 -1150.89 142 123 108
316 488 -1102.52 91 85 85
318 486 -1035.46 144 136 133
318 485 -1039.76 139 134 131
320 484 -1101.84 98 93 97
296 483 -1082.54 150 138 124
320 483 -1094.58 74 72 75
300 482 -1023.55 111 91 100
301 482 -1016.13 116 100 100
313 482 -1026.49 119 113 115
294 481 -978.025 142 136 124
295 481 -968.824 140 134 122
298 481 -988.544 88 79 82
299 481 -1004.19 73 62 66
300 481 -997.584 71 59 59
301 481 -990.337 75 61 60
302 481 -989.98 75 60 57
313 481 -1011.32 104 99 93
301 480 -963.376 38 28 27
289 479 -1094.58 202 182 181
285 476 -1069.65 180 159 158
281 472 -1047.97 140 119 124
282 472 -1031.94 68 52 55
276 468 -991.915 130 116 113
275 467 -994.101 175 157 157
276 467 -982.422 82 71 69
274 466 -1012.07 171 149 152
275 466 -994.581 126 107 109
274 465 -997.456 123 107 107
275 465 -984.185 79 65 65
272 464 -1009.35 144 130 127
270 463 -981.692 240 215 218
271 463 -999.984 134 116 116
270 462 -981.058 171 151 153
271 462 -994.732 95 81 80
270 461 -974.929 93 77 78
268 460 -964.13 237 218 224
268 459 -955.133 191 176 181
268 458 -949.719 138 126 130
268 457 -940.497 78 68 69
267 456 -953.679 110 97 104
263 454 -932.077 255 250 255
264 454 -932.162 236 225 231
263 453 -919.8 227 218 223
264 453 -923.449 160 149 155
263 452 -904.879 178 169 172
266 452 -877.015 112 111 116
262 451 -909.294 250 241 244
266 451 -873.342 111 112 116
269 451 -786 66 68 65
262 450 -902.507 215 206 207
263 450 -928.471 124 113 117
266 450 -870.244 118 122 125
269 450 -783.422 67 69 68
262 449 -897.756 166 160 160
263 449 -909.656 110 101 104
263 448 -875.961 102 100 101
259 447 -882.808 244 228 239
260 447 -890.03 204 192 202
259 446 -873.334 224 208 219
263 446 -855.257 114 118 127
264 445 -835.475 172 170 183
266 445 -762.155 126 127 129
264 444 -828.454 205 200 220
265 444 -854.397 149 139 148
266 444 -880.248 100 90 101
267 444 -877.974 62 54 65
265 443 -863.263 144 134 143
266 443 -871.584 74 66 77
267 443 -857.631 43 38 45
266 442 -862.527 42 37 44
262 441 -784.361 187 176 206
264 441 -848.576 210 200 211
262 440 -778.9 216 203 229
263 440 -834.615 176 165 179
264 440 -843.372 177 169 180
262 439 -774.318 230 218 240
263 439 -830.594 167 157 168
264 439 -838.834 127 119 130
265 439 -730.625 63 58 64
264 438 -833.53 67 61 71
262 436 -697.938 169 165 166
263 436 -702.173 78 76 77
256 435 -693.591 210 194 207
262 435 -832.57 109 103 107
260 434 -699.481 143 133 134
255 433 -787.815 204 188 201
260 433 -689.036 106 100 100
254 432 -800.534 241 228 237
255 432 -782.03 168 155 162
254 431 -797.057 182 171 175
254 430 -794.314 115 104 108
252 429 -774.17 179 168 174
251 428 -763.662 155 144 152
252 428 -757.118 116 105 111
252 427 -749.511 93 84 89
252 426 -754.562 114 105 110
249 424 -726.276 116 107 112
250 424 -708.299 103 96 112
247 423 -741.733 189 184 190
248 423 -732.684 140 134 138
249 423 -727.755 102 96 100
246 421 -719.156 176 171 178
247 421 -695.376 115 106 125
249 421 -623.245 88 90 89
245 420 -714.839 211 204 212
246 420 -716.956 158 151 159
244 418 -727.465 205 193 203
245 418 -730.225 158 146 158
243 417 -691.314 236 226 235
244 417 -714.88 186 174 186
245 417 -723.502 147 135 147
243 416 -691.806 217 207 216
246 416 -679.287 122 114 125
245 414 -697.917 137 126 140
245 413 -694.526 140 129 143
246 413 -696.156 111 103 114
246 412 -690.924 111 103 114
246 411 -684.35 108 101 109
246 410 -675.9 103 95 106
243 409 -644.632 199 193 207
244 409 -644.932 163 157 169
246 409 -672.182 95 88 96
244 408 -651.898 167 161 173
243 407 -639.717 199 193 207
244 407 -643.633 169 163 175
243 406 -634.126 198 192 204
244 406 -636.275 164 161 172
243 405 -634.74 188 182 194
244 405 -633.542 152 149 160
243 404 -632.877 180 174 184
244 404 -628.749 139 136 145
243 403 -625.456 170 165 172
244 403 -619.723 126 123 132
237 401 -487.674 207 202 206
238 401 -490.478 165 159 163
240 400 -505.81 163 154 157
234 399 -475.073 242 238 237
235 399 -476.209 197 193 192
236 399 -491.245 137 131 131
232 397 -588.548 246 240 244
233 397 -597.736 196 190 194
236 396 -591.932 116 114 117
230 393 -577.161 251 241 242
234 393 -555.918 209 205 206
235 393 -544.401 166 166 168
79 392 -471.942 249 235 232
231 392 -454.042 151 142 143
232 392 -469.371 172 163 164
234 392 -572.245 206 202 203
106 391 -569.573 238 223 226
107 391 -573.457 222 206 209
229 391 -554.287 252 246 248
230 391 -560.669 163 153 154
231 391 -453.514 101 92 93
232 391 -465.161 127 118 119
233 391 -469.231 185 179 179
234 391 -455.645 201 197 198
238 391 -528.456 126 124 127
229 390 -546.387 216 210 214
230 390 -550.572 120 111 114
232 390 -453.215 78 72 72
233 390 -458.785 118 114 113
234 390 -457.245 130 126 127
228 389 -547.617 233 227 231
229 389 -544.15 148 142 146
230 389 -554.761 70 64 68
236 389 -436.724 78 76 77
237 389 -438.281 100 98 101
228 388 -541.178 222 215 222
229 388 -542.355 113 106 113
229 387 -527 113 108 114
229 386 -515.463 115 112 119
229 385 -510.355 113 111 122
228 384 -505.624 207 205 219
229 384 -510.965 111 110 126
228 383 -499.99 204 203 219
124 382 -406.473 249 240 243
130 382 -396.039 247 241 243
131 382 -402.392 248 244 245
132 382 -405.442 252 248 249
228 382 -492.214 209 208 224
228 381 -478.629 225 224 238
229 381 -474.936 151 150 168
230 381 -486.335 82 81 99
228 380 -466.182 244 242 255
229 380 -470.094 199 196 213
230 380 -480.219 127 124 143
231 380 -480.231 67 66 82
229 379 -464.047 236 234 248
230 379 -471.63 168 165 184
231 379 -469.647 91 88 107
117 378 -376.331 255 250 250
118 378 -376.474 255 254 255
119 378 -377.94 254 254 254
120 378 -383.003 254 254 255
121 378 -383.098 255 255 255
122 378 -383.267 255 255 255
123 378 -383.385 255 255 255
124 378 -381.882 255 254 255
125 378 -380.961 255 254 255
126 378 -383.632 255 254 253
127 378 -386.602 255 254 253
128 378 -381.893 255 255 253
129 378 -380.41 255 255 253
130 378 -382.535 255 255 253
131 378 -382.252 255 255 253
132 378 -380.514 255 255 253
133 378 -382.368 254 254 252
134 378 -381.794 253 255 252
229 378 -455.634 255 250 255
230 378 -464.031 198 190 211
231 378 -466.021 117 112 132
232 378 -468.503 58 54 69
74 377 -437.628 255 250 254
75 377 -436.84 253 247 251
80 377 -441.165 254 254 255
81 377 -441.502 253 253 255
82 377 -442.263 253 253 253
83 377 -441.49 253 253 253
84 377 -440.701 255 255 255
85 377 -441.179 255 255 253
86 377 -441.463 255 255 253
88 377 -441.74 255 255 255
103 377 -374.961 255 250 253
104 377 -375.578 255 247 248
105 377 -374.891 252 240 242
106 377 -376.12 252 237 240
107 377 -375.494 249 233 236
108 377 -376.405 245 226 232
109 377 -363.459 241 220 227
110 377 -366.184 238 215 223
111 377 -365.94 239 216 222
112 377 -366.812 241 219 222
113 377 -368.399 239 219 220
114 377 -370.254 242 224 224
115 377 -371.551 247 231 231
116 377 -370.431 249 238 236
117 377 -368.249 254 246 244
118 377 -368.062 255 253 252
119 377 -368.88 255 254 255
120 377 -367.825 255 255 255
121 377 -367 255 255 255
122 377 -368.629 255 255 255
123 377 -370.09 255 255 255
124 377 -369.925 255 254 255
125 377 -369.419 255 254 255
126 377 -369.51 255 254 253
127 377 -371.176 255 254 253
128 377 -369.277 255 254 253
129 377 -367.869 255 255 251
130 377 -370.046 255 255 251
131 377 -371.953 255 255 251
132 377 -371.625 255 255 251
133 377 -371.527 255 255 251
134 377 -369.666 255 255 251
135 377 -368.324 254 255 253
136 377 -372.943 254 255 253
137 377 -374.624 254 255 253
138 377 -373.556 254 255 253
139 377 -370.033 255 255 253
140 377 -369.339 255 255 253
141 377 -371.343 255 255 253
142 377 -371.582 255 255 253
143 377 -370.406 255 255 255
144 377 -368.651 255 255 255
231 377 -464.799 136 128 149
232 377 -465.229 76 69 87
96 376 -359.27 251 251 253
97 376 -360.401 255 254 255
98 376 -363.976 254 252 253
99 376 -367.014 255 254 255
100 376 -365.752 253 251 252
101 376 -364.604 255 252 253
102 376 -365.828 255 249 251
103 376 -364.938 253 247 249
104 376 -367.235 247 238 241
105 376 -367.051 240 231 234
106 376 -366.256 225 214 218
107 376 -364.878 223 211 215
108 376 -360.485 221 206 211
109 376 -358.782 218 201 207
110 376 -359.275 209 190 196
111 376 -361.523 220 199 204
112 376 -362.436 216 194 197
113 376 -360.638 211 191 192
114 376 -359.436 227 209 207
115 376 -360.276 230 216 213
116 376 -360.22 244 235 230
117 376 -358.679 241 236 232
118 376 -361.489 255 252 249
119 376 -362.121 253 252 250
120 376 -359.415 255 255 255
121 376 -358.979 254 255 255
122 376 -360.923 252 253 255
123 376 -362.657 255 255 255
124 376 -362.256 255 255 255
125 376 -360.964 255 253 254
126 376 -360.782 255 255 253
127 376 -362.637 255 254 253
128 376 -360.74 255 253 252
129 376 -358.838 255 254 255
130 376 -360.622 255 254 255
131 376 -361.965 255 254 255
132 376 -361.418 255 253 254
133 376 -361.989 254 252 253
134 376 -361.548 255 254 255
135 376 -360.049 255 254 255
136 376 -362.618 255 254 255
137 376 -362.226 255 254 255
138 376 -361.742 255 254 255
139 376 -362.01 254 252 253
140 376 -363.064 255 254 255
141 376 -364.843 255 253 255
142 376 -365.337 255 254 255
143 376 -363.157 255 254 255
144 376 -363.617 255 254 255
145 376 -363.346 255 255 255
146 376 -363.819 254 254 254
147 376 -365.016 255 255 255
148 376 -366.259 255 255 255
149 376 -363.901 255 255 255
150 376 -362.446 254 254 254
151 376 -369.698 255 255 255
152 376 -380.436 255 255 255
153 376 -381.824 254 254 254
231 376 -457.944 154 145 164
232 376 -457.206 89 80 97
89 375 -357.601 254 253 249
90 375 -353.928 254 253 249
91 375 -354.574 254 253 251
92 375 -358.703 255 254 252
93 375 -360.737 255 255 253
94 375 -357.769 254 254 252
95 375 -354.391 255 253 254
96 375 -352.663 255 254 255
97 375 -351.125 255 254 255
98 375 -354.218 255 254 255
99 375 -358.445 255 254 255
100 375 -358.155 255 254 255
101 375 -355.904 255 254 255
102 375 -355.546 255 253 254
103 375 -355.318 255 252 253
104 375 -355.077 255 254 255
105 375 -355.66 255 254 255
106 375 -355.118 255 253 255
107 375 -354.574 255 252 255
108 375 -353.861 255 250 253
109 375 -356.132 255 251 255
110 375 -358.192 255 250 254
111 375 -359.417 255 244 247
112 375 -357.498 255 247 248
113 375 -354.961 255 241 241
114 375 -352.907 255 243 240
115 375 -352.915 255 244 240
116 375 -353.536 255 253 248
117 375 -353.226 255 252 246
118 375 -355.674 255 255 250
119 375 -355.04 255 251 248
120 375 -353.77 255 255 253
121 375 -353.881 255 255 255
122 375 -355.161 254 254 254
123 375 -355.812 255 255 255
124 375 -355.081 255 255 255
125 375 -354.183 255 254 255
126 375 -354.132 255 255 253
127 375 -355.039 253 252 250
128 375 -354.346 255 254 255
129 375 -354.099 255 253 254
130 375 -355.271 254 252 253
131 375 -355.038 255 254 255
132 375 -352.846 255 254 255
133 375 -352.398 255 254 255
134 375 -353.555 255 254 255
135 375 -353.983 253 251 252
136 375 -355.634 255 254 255
137 375 -355.171 255 254 255
138 375 -355.526 255 254 255
139 375 -354.842 255 254 255
140 375 -352.82 255 254 255
141 375 -353.161 255 253 255
142 375 -355.572 255 254 255
143 375 -355.59 255 253 255
144 375 -356.428 255 253 255
145 375 -356.115 255 255 255
146 375 -355.032 255 255 255
147 375 -355.61 255 255 253
148 375 -357.781 253 253 251
149 375 -357.592 253 253 251
150 375 -356.713 255 255 253
151 375 -357.663 255 255 255
152 375 -356.088 254 254 254
153 375 -356.794 255 255 255
154 375 -358.636 255 254 255
155 375 -362.941 255 254 255
156 375 -368.287 255 253 255
157 375 -371.351 255 251 255
158 375 -374.696 255 252 255
231 375 -448.371 161 150 166
232 375 -444.583 96 88 103
73 374 -361.5 247 244 237
74 374 -361.147 252 252 244
84 374 -351.512 255 255 251
85 374 -349.494 255 255 251
86 374 -353.339 255 254 249
87 374 -350.575 255 253 248
88 374 -351.062 255 254 249
89 374 -350.117 255 254 251
90 374 -348.951 255 254 251
91 374 -348.372 255 254 251
92 374 -349.46 255 254 251
93 374 -350.449 255 254 253
94 374 -349.232 255 253 252
95 374 -348.003 255 253 254
96 374 -347.992 255 253 255
97 374 -345.787 252 252 254
98 374 -346.094 254 254 254
99 374 -348.208 255 254 255
100 374 -349.036 255 254 252
101 374 -349.25 255 255 253
102 374 -349.145 255 255 253
103 374 -348.075 255 255 253
104 374 -349.959 254 255 255
105 374 -348.045 254 255 255
106 374 -346.434 255 255 255
107 374 -348.024 254 254 255
108 374 -349.268 255 254 255
109 374 -350.689 255 253 254
110 374 -350.909 255 254 255
111 374 -351.262 255 253 253
112 374 -350.23 255 252 250
113 374 -348.674 255 252 250
114 374 -347.953 255 253 248
115 374 -347.938 255 251 246
116 374 -348.348 255 253 245
117 374 -348.074 255 254 248
118 374 -349.413 255 254 248
119 374 -347.879 255 253 250
120 374 -347.322 255 252 249
121 374 -348.546 255 253 253
122 374 -349.284 255 253 254
123 374 -349.671 255 254 255
124 374 -349.301 255 253 254
125 374 -348.79 255 253 254
126 374 -348.915 255 255 253
127 374 -349 255 255 253
128 374 -349.416 255 253 254
129 374 -350.123 255 254 255
130 374 -350.692 255 253 255
131 374 -349.863 254 252 255
132 374 -347.717 254 252 255
133 374 -346.658 254 254 255
134 374 -347.456 255 255 255
135 374 -348.083 255 255 255
136 374 -349.04 255 255 255
137 374 -348.083 253 253 253
138 374 -348.801 255 255 255
139 374 -349.04 254 254 254
140 374 -346.616 255 255 255
141 374 -346.332 255 254 255
142 374 -347.99 255 254 255
143 374 -347.648 255 253 254
144 374 -348.029 255 254 255
145 374 -348.178 255 254 252
146 374 -347.162 255 255 253
147 374 -348.831 255 255 253
148 374 -352.288 255 255 253
149 374 -352.581 255 255 253
150 374 -350.889 255 255 253
151 374 -350.714 252 252 250
152 374 -348.81 255 255 253
153 374 -347.957 255 255 253
154 374 -348.036 255 255 255
155 374 -349.104 255 255 255
156 374 -351.004 255 255 255
157 374 -351.011 255 254 255
158 374 -350.258 255 254 255
159 374 -351.67 255 254 255
160 374 -350.036 255 254 255
161 374 -351.272 255 253 254
162 374 -352.08 255 255 255
163 374 -349.883 255 255 255
164 374 -348.09 255 255 255
165 374 -350.444 255 255 255
166 374 -352.903 255 255 255
167 374 -350.919 255 255 255
168 374 -347.087 253 253 253
169 374 -348.726 255 255 255
170 374 -350.242 254 254 254
171 374 -354.375 255 255 255
172 374 -358.109 255 255 255
228 374 -328.539 252 252 254
229 374 -334.299 232 233 237
230 374 -341.647 193 194 199
232 374 -434.753 109 98 112
80 373 -349.006 255 255 253
81 373 -343 255 255 255
82 373 -341.673 255 255 253
83 373 -342.286 253 253 251
84 373 -341.181 249 250 245
85 373 -341.353 247 246 242
86 373 -343.478 249 248 243
87 373 -343.449 253 252 247
88 373 -343.284 253 252 247
89 373 -343.674 255 253 248
90 373 -343.76 255 253 248
91 373 -343.129 251 247 244
92 373 -342.348 252 248 245
93 373 -341.239 255 254 251
94 373 -340.953 255 254 251
95 373 -341.936 255 255 253
96 373 -343.679 255 255 255
97 373 -343.785 253 253 255
98 373 -342.788 255 255 255
99 373 -341.988 255 253 254
100 373 -342.359 255 255 253
101 373 -342.957 255 255 253
102 373 -343.993 255 255 253
103 373 -343.926 254 254 252
104 373 -344.421 254 254 254
105 373 -342.827 255 255 255
106 373 -342.104 255 255 255
107 373 -342.656 254 252 255
108 373 -343.518 255 254 255
109 373 -343.807 255 251 253
110 373 -343.04 255 252 255
111 373 -342.67 255 246 247
112 373 -342.589 255 252 253
113 373 -342.269 255 252 251
114 373 -343 255 246 244
115 373 -342.532 241 230 226
116 373 -342.517 234 223 217
117 373 -341.677 229 218 212
118 373 -342.8 231 218 212
119 373 -341.661 228 214 211
120 373 -341.306 223 209 208
121 373 -342.745 225 213 213
122 373 -343.411 223 211 213
123 373 -344.592 222 211 215
124 373 -344.358 217 206 210
125 373 -343.185 205 196 199
126 373 -343.379 201 195 195
127 373 -343.122 205 199 199
128 373 -343.166 209 203 203
129 373 -344.068 211 205 205
130 373 -343.585 214 208 208
131 373 -343.738 215 209 209
132 373 -343.151 220 214 214
133 373 -342.759 227 221 221
134 373 -343.697 230 224 224
135 373 -343.771 234 228 228
136 373 -343.225 239 233 233
137 373 -342.193 240 235 232
138 373 -342.485 245 240 237
139 373 -343.462 246 241 238
140 373 -343.366 251 246 243
141 373 -343 252 247 244
142 373 -342.806 255 253 250
143 373 -342.331 255 253 251
144 373 -341.626 255 252 251
145 373 -341.549 255 252 251
146 373 -341.413 255 253 250
147 373 -341.989 255 253 250
148 373 -342.82 255 254 250
149 373 -343.108 255 254 250
150 373 -343.646 255 255 250
151 373 -344.872 255 253 248
152 373 -345.275 255 255 251
153 373 -344.436 255 255 251
154 373 -342.966 254 253 251
155 373 -341.458 254 253 251
156 373 -341.806 255 254 255
157 373 -341.942 255 254 255
158 373 -341.354 255 254 255
159 373 -342.523 255 254 255
160 373 -343.508 255 254 255
161 373 -344.049 255 254 255
162 373 -344.319 254 254 254
163 373 -343.176 255 255 255
164 373 -342.152 255 255 255
165 373 -343.11 254 254 254
166 373 -343.915 254 254 254
167 373 -343 255 255 255
168 373 -342.191 255 255 255
169 373 -343.082 255 255 255
170 373 -343.555 255 255 255
171 373 -344.833 255 255 255
172 373 -345.25 255 255 255
173 373 -346.369 254 254 254
174 373 -348.543 255 255 255
175 373 -347.365 252 254 253
176 373 -349.792 254 255 255
177 373 -356.389 254 255 255
225 373 -318.67 255 251 248
226 373 -325.683 223 219 216
227 373 -337.953 188 187 185
228 373 -339.364 152 152 152
229 373 -339.598 115 115 117
230 373 -339.908 108 109 113
76 372 -332.512 255 252 247
77 372 -337.458 255 253 248
78 372 -344.224 255 254 249
79 372 -344.192 254 253 249
80 372 -339.298 253 253 251
81 372 -337.13 253 255 254
82 372 -337.941 254 255 253
83 372 -337.827 254 255 253
84 372 -336.711 250 252 247
85 372 -336.766 247 248 243
86 372 -337.283 248 249 243
87 372 -337.341 253 252 247
88 372 -337.485 255 255 248
89 372 -337.746 255 254 249
90 372 -338.171 253 252 247
91 372 -337.985 249 248 243
92 372 -337.188 252 251 246
93 372 -336.102 255 255 251
94 372 -336.06 255 252 249
95 372 -337.486 255 252 251
96 372 -337.572 255 254 255
97 372 -337.783 254 254 255
98 372 -337.52 255 254 255
99 372 -337.707 255 253 254
100 372 -338.233 255 251 251
101 372 -337.795 253 247 247
102 372 -337.607 255 253 253
103 372 -337.66 255 251 251
104 372 -336.788 255 253 255
105 372 -336.869 255 246 251
106 372 -337.523 254 244 252
107 372 -337 240 227 236
108 372 -337.55 231 216 223
109 372 -338.283 228 209 215
110 372 -337.719 207 186 193
111 372 -335.318 147 126 131
112 372 -336.068 137 118 122
113 372 -336.13 127 108 110
114 372 -338.046 122 104 104
117 372 -329.948 119 98 93
118 372 -333.772 128 104 100
121 372 -339.259 119 97 99
123 372 -343.975 124 103 108
124 372 -342.853 124 105 111
133 372 -340.915 115 95 94
134 372 -344.251 120 100 99
135 372 -342.014 129 109 108
136 372 -337.566 136 116 115
137 372 -336.248 133 114 110
138 372 -335.797 134 115 111
139 372 -337.272 134 113 110
140 372 -338.953 143 122 119
141 372 -338.424 153 132 129
142 372 -337.158 169 148 145
143 372 -336.929 179 158 155
144 372 -337 181 160 159
145 372 -336.009 185 164 163
146 372 -336.385 188 168 167
147 372 -337.288 201 183 181
148 372 -337.048 224 209 206
149 372 -337.124 245 231 228
150 372 -337.638 255 246 242
151 372 -338.25 255 253 248
152 372 -338.622 255 252 249
153 372 -338.869 255 253 250
154 372 -338.252 255 254 251
155 372 -336.484 255 254 251
156 372 -336.541 255 254 253
157 372 -337.033 255 254 255
158 372 -336.343 255 254 255
159 372 -337.133 255 253 254
160 372 -337.385 255 253 254
161 372 -337.316 255 255 253
162 372 -337.977 255 255 253
163 372 -337.885 254 254 252
164 372 -336.416 255 255 253
165 372 -335.927 255 255 253
166 372 -336.737 255 255 253
167 372 -337.458 255 255 253
168 372 -337.617 253 253 251
169 372 -337.347 255 255 253
170 372 -336.618 253 255 252
171 372 -336.971 253 255 252
172 372 -337.493 254 255 253
173 372 -338.566 254 255 253
174 372 -339.493 254 255 253
175 372 -338.306 254 255 253
176 372 -341.655 252 254 251
177 372 -343.918 255 255 253
178 372 -343.985 255 255 253
179 372 -348.99 255 255 253
224 372 -321.482 215 210 207
225 372 -320.542 151 146 143
226 372 -321.25 70 69 65
74 371 -353.117 255 254 253
75 371 -345.737 255 254 253
76 371 -331.312 255 253 250
77 371 -331.834 255 254 251
78 371 -332.526 255 254 251
79 371 -333.343 255 255 251
80 371 -330.858 254 254 252
81 371 -330.054 253 255 254
82 371 -332.219 253 255 252
83 371 -333.238 254 255 253
84 371 -333.081 255 255 251
85 371 -333.429 255 255 251
86 371 -332.043 255 255 250
87 371 -331.4 255 254 249
88 371 -330.91 253 253 245
89 371 -330.864 255 255 247
90 371 -331.136 255 255 250
91 371 -331.181 255 254 249
92 371 -331.537 255 255 250
93 371 -331.438 255 254 250
94 371 -330.913 255 251 248
95 371 -331.431 255 253 253
96 371 -331.553 255 252 255
97 371 -330.917 255 252 255
98 371 -330.373 255 248 251
99 371 -331.408 247 236 240
100 371 -331.707 233 223 224
101 371 -330.938 209 197 199
102 371 -330.934 202 192 193
103 371 -330.767 184 174 175
104 371 -333.204 177 166 170
105 371 -331.113 154 141 148
106 371 -332.203 143 130 139
107 371 -330.344 146 130 140
108 371 -331.136 142 122 131
109 371 -331.169 133 110 118
110 371 -329.421 124 99 105
115 371 -405.197 79 78 92
116 371 -401.201 83 82 96
117 371 -412.006 83 84 88
119 371 -404.951 74 74 86
120 371 -406.695 77 75 86
121 371 -404.785 75 73 86
122 371 -405.235 78 74 88
123 371 -405.2 79 75 89
130 371 -412.016 75 77 76
131 371 -410.725 76 78 77
132 371 -410.159 78 78 78
133 371 -407.208 74 74 74
134 371 -403.031 70 62 83
135 371 -404.096 67 62 84
136 371 -402.272 64 61 82
137 371 -406 61 58 79
138 371 -407.164 65 65 65
139 371 -408.622 65 67 66
140 371 -408.806 65 67 66
144 371 -411.515 71 66 70
145 371 -410.665 71 65 69
146 371 -408.456 68 63 67
150 371 -333.974 99 84 77
151 371 -333.123 116 103 97
152 371 -334.331 128 117 111
153 371 -334.852 146 135 131
154 371 -333.45 170 159 155
155 371 -331.287 195 184 182
156 371 -331.61 219 207 207
157 371 -331.777 238 226 228
158 371 -331.151 252 242 243
159 371 -331.65 255 252 253
160 371 -331.749 255 250 251
161 371 -331.563 255 253 253
162 371 -332.299 255 253 253
163 371 -332.486 255 253 253
164 371 -331.272 255 253 253
165 371 -330.696 255 253 253
166 371 -331.403 255 252 252
167 371 -331.986 255 253 253
168 371 -332.326 255 251 251
169 371 -331.26 255 253 253
170 371 -330.099 255 254 253
171 371 -330.62 255 252 251
172 371 -331.76 255 254 253
173 371 -332.892 255 254 253
174 371 -332.418 255 252 251
175 371 -329.97 255 254 253
176 371 -330.937 255 253 252
177 371 -332.883 255 252 251
178 371 -335.414 248 242 242
179 371 -339.711 243 237 237
180 371 -337.083 249 240 241
181 371 -335.203 240 230 231
223 371 -306.743 226 220 222
224 371 -310.414 158 150 148
225 371 -313.463 83 78 74
72 370 -301.615 255 255 253
73 370 -323.337 255 255 253
74 370 -331.353 255 255 251
75 370 -326.599 254 255 250
76 370 -323.083 253 254 249
77 370 -326.195 255 255 251
78 370 -324.845 254 255 250
79 370 -323.765 254 254 252
80 370 -323.057 255 254 255
81 370 -323.553 255 254 255
82 370 -325.963 255 255 253
83 370 -326.955 254 253 251
84 370 -326.655 255 251 248
85 370 -326.507 255 253 250
86 370 -325.822 255 254 250
87 370 -325.79 255 254 250
88 370 -324.778 255 254 248
89 370 -325.138 255 252 246
90 370 -325.745 255 251 246
91 370 -325.875 255 251 246
92 370 -326.233 255 250 248
93 370 -325.92 255 244 242
94 370 -325.046 247 236 234
95 370 -325.133 251 239 239
96 370 -325.261 254 237 245
97 370 -325.277 248 228 239
98 370 -324.6 219 199 208
99 370 -324.673 180 161 167
100 370 -325.555 145 126 130
102 370 -330.636 121 105 108
155 370 -328.458 106 86 85
156 370 -327.762 127 105 107
157 370 -326.164 147 125 128
158 370 -324.922 167 142 146
159 370 -325.066 178 155 161
160 370 -326.71 184 163 168
161 370 -325.754 192 173 177
162 370 -325.22 197 178 182
163 370 -325 197 178 182
164 370 -325.765 201 182 186
165 370 -326.453 204 185 189
166 370 -326.302 204 185 189
167 370 -324.797 204 185 189
168 370 -325.349 208 189 193
169 370 -325 208 189 193
170 370 -324.578 212 196 199
171 370 -324.771 212 196 199
172 370 -325.816 222 206 209
173 370 -326.658 236 220 223
174 370 -325.798 239 223 226
175 370 -324.008 249 233 236
176 370 -323.715 247 233 233
177 370 -324.086 242 228 228
178 370 -325.825 240 224 225
179 370 -325.873 215 199 200
180 370 -325.219 212 193 195
181 370 -324.119 185 166 168
182 370 -330.424 175 155 157
183 370 -338.964 185 163 166
184 370 -383.953 220 195 198
186 370 -398.538 255 237 241
187 370 -397.759 255 235 241
188 370 -400.312 255 240 243
189 370 -400.11 255 246 248
190 370 -399.738 255 244 250
191 370 -402.744 252 227 231
192 370 -401.021 248 222 231
193 370 -400.3 193 167 178
194 370 -399.056 190 159 175
195 370 -399.586 166 135 151
196 370 -400.54 157 130 139
197 370 -395.882 180 148 163
198 370 -320.824 184 169 174
199 370 -325.123 255 245 249
200 370 -328.198 238 232 234
201 370 -326.252 255 254 255
202 370 -317.664 255 254 255
203 370 -326.986 213 207 209
204 370 -322.79 247 238 243
205 370 -322.971 201 188 195
219 370 -382.011 238 221 231
222 370 -449.743 235 214 223
223 370 -448.319 163 146 152
224 370 -442.918 103 95 93
70 369 -315.341 255 255 253
71 369 -316.767 255 255 253
72 369 -316.79 254 255 253
73 369 -319.052 252 254 251
74 369 -319.485 254 255 253
75 369 -318.635 254 255 253
76 369 -319.427 253 255 252
77 369 -319.106 254 255 253
78 369 -319.218 255 255 253
79 369 -318.38 255 255 253
80 369 -317.943 255 252 254
81 369 -318.416 255 252 255
82 369 -319.145 255 252 254
83 369 -319.717 255 253 253
84 369 -319.457 255 253 253
85 369 -319.224 255 253 251
86 369 -319.332 252 242 241
87 369 -318.64 242 231 229
88 369 -319.884 227 213 212
89 369 -319.563 219 204 201
90 369 -319.986 215 200 197
91 369 -320.52 220 202 202
92 369 -320.348 221 203 203
93 369 -319.537 199 183 184
94 369 -318.712 168 152 153
95 369 -320.986 155 139 142
96 369 -319.109 159 139 148
97 369 -322.412 148 126 138
98 369 -320.493 119 98 107
113 369 -326.755 99 93 93
114 369 -324.572 102 97 93
127 369 -320.06 93 93 93
172 369 -320.69 95 75 77
173 369 -321.109 126 106 108
174 369 -318.812 141 121 123
175 369 -316.794 163 143 144
176 369 -316.768 164 144 145
177 369 -319.143 196 176 175
178 369 -318.596 255 248 250
179 369 -318.837 255 247 249
180 369 -318.875 255 248 251
181 369 -318.912 255 248 251
182 369 -318.159 255 248 253
183 369 -319.089 255 245 250
184 369 -319.995 255 238 243
185 369 -322.123 255 247 252
186 369 -320.268 255 245 250
187 369 -321.507 255 247 253
188 369 -322.91 255 247 253
189 369 -321.654 255 247 252
190 369 -320.612 255 248 252
191 369 -315.055 255 245 248
193 369 -322.965 255 243 246
199 369 -319.214 255 250 254
200 369 -317.895 255 252 255
201 369 -321.401 255 252 254
202 369 -303.756 255 250 252
203 369 -326.283 255 246 249
204 369 -319.873 255 250 255
205 369 -308.512 232 219 226
219 369 -376.332 248 226 238
222 369 -443.395 191 163 175
223 369 -443.22 101 80 87
69 368 -312.197 255 254 255
70 368 -311.272 255 254 255
71 368 -312.694 254 252 253
72 368 -313.851 255 255 255
73 368 -315.694 255 255 255
74 368 -315.114 253 255 254
75 368 -311.722 254 255 255
76 368 -311.627 255 255 255
77 368 -313.598 254 254 254
78 368 -313.427 255 253 254
79 368 -313.988 255 253 255
80 368 -313.983 255 250 254
81 368 -312.901 255 249 254
82 368 -312.602 255 245 249
83 368 -313.11 240 229 233
84 368 -313.438 220 209 213
85 368 -312.43 217 205 209
86 368 -311.672 214 197 203
87 368 -312.648 190 169 174
88 368 -315.778 167 142 146
94 368 -386.28 85 84 92
95 368 -382.265 86 86 96
96 368 -385.724 81 80 94
100 368 -313.523 110 101 106
102 368 -314.794 106 102 103
107 368 -317.094 98 94 95
108 368 -313.761 101 97 98
109 368 -314.548 102 96 98
113 368 -319.348 97 97 95
164 368 -388.8 48 48 48
165 368 -389.597 51 49 50
166 368 -388.228 52 50 51
167 368 -387.525 52 52 54
168 368 -386.696 51 51 51
169 368 -383.266 53 53 53
170 368 -384.806 54 52 53
171 368 -389.06 53 52 50
172 368 -392.396 55 54 52
173 368 -390.824 53 52 50
174 368 -387.796 49 49 49
175 368 -384.916 52 51 49
177 368 -315.532 124 101 95
178 368 -313.434 240 215 211
179 368 -312.821 255 235 236
180 368 -313.696 255 239 243
181 368 -314.633 255 245 249
182 368 -314.063 255 251 255
183 368 -313.554 255 250 253
184 368 -313.335 255 252 255
185 368 -313.731 255 252 255
186 368 -313.056 255 251 255
187 368 -313.425 255 249 255
188 368 -313.657 255 250 254
189 368 -315.954 255 251 254
190 368 -319.429 255 253 254
191 368 -319.535 255 254 255
192 368 -335.153 255 254 255
221 368 -291.976 190 171 177
222 368 -293.855 121 106 109
66 367 -306.504 255 255 255
67 367 -305.404 255 253 254
68 367 -307.34 254 252 253
69 367 -308.139 255 254 255
70 367 -306.322 255 254 255
71 367 -305.058 255 254 255
72 367 -306.076 255 255 255
73 367 -307.535 253 253 253
74 367 -307.285 255 255 255
75 367 -305.614 255 255 255
76 367 -305.682 253 251 254
77 367 -306.84 255 253 255
78 367 -307.731 255 252 255
79 367 -308.687 247 236 242
80 367 -309.007 218 203 210
81 367 -308.022 195 178 186
82 367 -307.591 185 172 179
83 367 -308.215 167 156 162
84 367 -311.447 139 128 134
85 367 -308.71 134 123 129
86 367 -304.109 138 123 128
87 367 -307.996 137 116 123
88 367 -311.94 145 120 126
89 367 -311.879 152 125 132
90 367 -309.17 140 111 116
92 367 -310.123 122 99 105
93 367 -310.021 122 103 109
94 367 -308.965 113 98 103
95 367 -311.432 115 102 109
96 367 -311.691 115 102 111
97 367 -310.826 123 112 120
98 367 -310.826 121 111 119
99 367 -308.866 111 106 112
100 367 -309.745 105 103 106
113 367 -313.199 93 98 94
159 367 -310.78 77 67 68
179 367 -306.244 121 95 94
180 367 -306.699 159 134 137
181 367 -307.472 222 203 205
182 367 -307.092 202 192 191
183 367 -307.3 255 253 253
184 367 -306.773 255 252 252
185 367 -307 255 253 255
186 367 -305.836 255 248 252
187 367 -306.372 255 251 255
188 367 -307.091 255 251 255
189 367 -308.091 255 253 255
190 367 -308.317 249 250 252
191 367 -309.212 252 255 255
192 367 -310.339 254 254 254
193 367 -312.973 255 253 254
194 367 -310.373 254 254 252
195 367 -319.5 254 255 253
219 367 -291.379 255 239 249
220 367 -291.978 207 192 199
221 367 -288.158 139 127 129
64 366 -283.43 255 255 255
65 366 -299.116 254 254 254
66 366 -300.427 255 255 255
67 366 -299.553 255 254 255
68 366 -300.263 255 254 255
69 366 -300.563 255 253 254
70 366 -300.144 255 253 254
71 366 -300.123 254 254 254
72 366 -300.437 255 255 255
73 366 -301 255 254 255
74 366 -300.592 255 253 255
75 366 -300.283 251 245 249
76 366 -299.434 230 220 228
77 366 -299.539 220 207 216
78 366 -301.238 217 200 210
79 366 -303.242 199 182 192
80 366 -306.072 167 150 160
88 366 -297.713 125 108 116
89 366 -298.121 139 122 130
90 366 -300.039 133 113 122
91 366 -302.91 129 112 120
92 366 -303.22 133 120 127
93 366 -306.278 131 122 127
94 366 -303.229 129 125 126
95 366 -301.604 122 120 123
96 366 -304.929 114 107 114
97 366 -305.608 121 114 122
98 366 -306.199 115 110 116
99 366 -304.771 102 101 106
113 366 -306.474 88 92 91
178 366 -371.011 46 44 45
179 366 -372.713 45 39 43
180 366 -374.228 49 38 44
181 366 -377.129 51 43 40
182 366 -377.194 50 42 39
184 366 -302.615 114 97 90
185 366 -301.936 146 127 123
186 366 -300.09 252 228 228
187 366 -299.947 255 243 246
188 366 -300.362 255 249 251
189 366 -299.665 255 249 252
190 366 -298.272 255 253 255
191 366 -299.284 255 254 255
192 366 -301.881 255 251 252
193 366 -302.477 255 252 253
194 366 -302.16 255 253 251
195 366 -302.14 255 251 249
196 366 -302.923 255 254 251
197 366 -302.659 255 254 251
198 366 -318.503 255 255 251
218 366 -425.49 255 252 255
219 366 -278.142 192 181 189
224 366 -381.113 104 98 100
225 366 -389.455 99 95 94
62 365 -292.291 255 255 255
63 365 -297.036 255 255 255
64 365 -294.279 255 255 255
65 365 -292.533 255 255 255
66 365 -292.066 255 254 255
67 365 -293.613 255 254 255
68 365 -294.469 255 254 255
69 365 -294.509 255 253 254
70 365 -294.936 255 254 255
71 365 -294.87 255 254 255
72 365 -296.198 255 254 255
73 365 -296.756 236 232 233
74 365 -295.29 204 198 202
75 365 -294.285 181 170 176
76 365 -292.031 164 151 160
77 365 -289.497 157 140 150
78 365 -294.266 160 140 151
79 365 -296.498 160 140 152
80 365 -299.539 156 140 151
81 365 -295.804 152 140 150
82 365 -296.9 158 148 156
83 365 -298.626 139 133 137
84 365 -297.775 129 125 126
85 365 -295.405 135 131 132
86 365 -293.487 132 128 129
87 365 -295 143 137 141
88 365 -292.467 140 130 138
89 365 -290.431 135 125 134
90 365 -291.893 124 114 123
91 365 -295.165 128 121 129
92 365 -297.976 123 118 125
93 365 -303.736 120 119 124
94 365 -298.575 122 123 125
95 365 -296.158 106 107 109
96 365 -298.771 100 98 103
97 365 -299.5 110 107 114
98 365 -301.634 101 100 105
99 365 -298.996 97 98 102
100 365 -299.419 94 98 101
182 365 -371.775 46 43 38
186 365 -295.181 102 75 68
187 365 -294.868 113 85 82
188 365 -295.458 134 110 108
189 365 -294.594 176 158 158
190 365 -292.323 168 158 159
191 365 -293.184 204 195 196
192 365 -292.745 191 179 179
193 365 -294.879 219 205 204
194 365 -293.647 255 240 237
195 365 -295.262 255 249 246
196 365 -296.616 255 251 248
197 365 -295 255 251 249
198 365 -294.262 255 254 250
199 365 -296.486 255 251 248
200 365 -297.497 255 255 253
201 365 -298.261 255 253 254
202 365 -298.923 255 253 254
218 365 -272.859 245 234 242
219 365 -272.249 141 130 136
61 364 -291.587 254 255 255
62 364 -285.954 255 255 255
63 364 -288.907 255 255 255
64 364 -290.468 253 253 253
65 364 -287.921 255 255 255
66 364 -288.837 254 252 253
67 364 -290.723 255 251 252
68 364 -289.76 255 253 255
69 364 -289.145 255 252 255
70 364 -289.533 255 251 255
71 364 -289 255 246 252
72 364 -290.848 240 229 235
73 364 -293.342 210 199 205
74 364 -290.343 171 160 168
75 364 -286.096 155 142 151
76 364 -286.55 157 141 152
77 364 -286.129 153 137 148
78 364 -289 152 134 146
79 364 -290.619 154 138 151
80 364 -291.951 146 136 147
81 364 -287.96 153 147 157
82 364 -288.869 155 150 156
83 364 -290.377 139 137 140
84 364 -286.771 132 132 132
85 364 -286.812 137 137 137
86 364 -288.833 137 137 137
87 364 -289.3 136 135 140
88 364 -290.235 131 130 138
89 364 -289.13 131 128 139
90 364 -288.845 124 120 134
91 364 -289 126 124 137
92 364 -291.28 115 115 125
93 364 -298.355 109 109 117
94 364 -292.647 99 103 106
97 364 -295.667 96 95 101
194 364 -284.409 112 88 86
195 364 -288.27 150 126 124
196 364 -291.908 206 182 180
197 364 -289.034 248 228 227
198 364 -288.412 255 245 242
199 364 -289.064 255 252 250
200 364 -289.735 255 253 253
201 364 -289.376 255 253 255
202 364 -289.513 255 252 255
203 364 -291.651 255 249 253
204 364 -292.748 255 250 254
205 364 -294.026 255 251 255
206 364 -294.285 252 243 244
207 364 -295.949 238 228 229
208 364 -292.181 233 217 220
209 364 -290.922 236 217 221
210 364 -288.615 247 235 237
211 364 -288.941 255 253 251
212 364 -292.706 255 253 250
213 364 -293.292 255 255 253
214 364 -289.336 255 251 250
215 364 -288.79 251 245 247
216 364 -289.332 226 215 221
217 364 -285.649 205 192 199
218 364 -282.351 184 171 178
219 364 -288.214 115 104 110
220 364 -293.267 96 90 92
222 364 -287.559 102 102 100
223 364 -292.112 111 113 110
224 364 -291.564 108 110 107
225 364 -290.814 90 92 89
60 363 -292.078 254 255 255
61 363 -291.252 255 255 255
62 363 -284.332 255 255 255
63 363 -285.838 255 254 255
64 363 -285.189 255 254 255
65 363 -283.267 255 253 254
66 363 -283.087 255 253 255
67 363 -284.397 255 252 255
68 363 -284.563 239 228 232
69 363 -283.844 203 191 195
70 363 -283.605 190 175 182
71 363 -284.044 200 185 192
72 363 -286.454 184 171 178
73 363 -291.522 177 164 173
74 363 -286.191 169 156 165
75 363 -280.661 171 159 169
76 363 -282.225 173 161 171
77 363 -283.389 170 158 170
78 363 -282.596 168 156 168
79 363 -283.415 162 154 165
80 363 -286.345 150 147 156
81 363 -282.738 148 147 155
82 363 -282.853 145 144 149
83 363 -283.468 140 141 143
84 363 -280.66 130 132 131
85 363 -282.205 126 130 129
86 363 -284.588 132 136 137
87 363 -286.017 125 128 133
88 363 -284.64 125 128 137
89 363 -286.583 118 117 131
90 363 -285.209 114 113 129
91 363 -284.323 123 122 138
92 363 -285.888 109 109 121
93 363 -289.821 98 101 110
95 363 -284.674 93 94 99
96 363 -291.375 94 93 99
97 363 -292.549 91 90 96
98 363 -287.419 91 92 97
101 363 -287.584 94 102 104
104 363 -287.016 82 90 92
114 363 -287.957 79 80 84
196 363 -285.778 84 56 55
197 363 -286.057 127 103 101
198 363 -283.804 157 139 137
199 363 -282.92 207 196 194
200 363 -282.737 205 195 194
201 363 -282.133 213 203 204
202 363 -281.644 210 198 200
203 363 -283.424 200 185 190
204 363 -284.485 201 184 190
205 363 -287.124 200 184 187
206 363 -286.794 178 163 166
207 363 -286.779 152 136 139
208 363 -287.438 143 120 126
209 363 -286.971 153 131 134
210 363 -285.15 147 131 132
211 363 -281.254 151 141 140
212 363 -286.916 155 150 147
213 363 -289.339 163 159 156
214 363 -282.491 158 152 152
215 363 -284.557 163 153 154
216 363 -285.619 129 117 121
217 363 -281.623 107 92 99
218 363 -287.852 99 86 93
219 363 -294.53 80 69 75
220 363 -295.5 73 67 69
223 363 -280.075 82 84 81
224 363 -280.576 76 78 75
225 363 -279.556 68 70 67
59 362 -274.331 255 255 255
60 362 -279.135 255 255 255
61 362 -281.74 255 254 255
62 362 -277.806 255 254 255
63 362 -278.417 255 254 255
64 362 -277.694 255 250 254
65 362 -276.09 255 252 255
66 362 -275.954 255 249 255
67 362 -278.101 242 229 236
68 362 -279.319 219 204 211
69 362 -277.418 194 177 185
73 362 -284.373 166 153 163
74 362 -280.249 168 156 166
75 362 -276.449 171 161 172
76 362 -277.537 166 160 170
77 362 -277.435 159 156 167
78 362 -274.454 154 152 163
79 362 -275.266 147 147 155
80 362 -281.651 149 149 157
81 362 -279.077 143 144 149
82 362 -277.631 140 141 145
83 362 -276.418 139 143 144
84 362 -276.008 131 135 136
85 362 -277.725 127 131 132
86 362 -278.583 132 135 140
87 362 -279.726 125 130 136
88 362 -276.151 121 125 136
89 362 -279.657 106 108 121
90 362 -277 105 107 122
91 362 -278.341 124 123 139
92 362 -280.249 105 104 118
93 362 -282.387 96 94 107
94 362 -279.512 95 93 104
95 362 -279.806 98 95 104
96 362 -287.263 91 90 96
98 362 -281.197 90 91 96
99 362 -276.22 86 89 94
100 362 -278.588 87 91 94
101 362 -280.728 100 104 107
106 362 -279.745 82 88 88
107 362 -281.305 78 87 86
191 362 -281.35 69 61 58
195 362 -346.288 48 39 42
196 362 -347.461 48 39 40
199 362 -279.29 77 66 64
200 362 -277.156 86 76 75
201 362 -274.605 91 81 82
202 362 -270.109 89 74 77
203 362 -271.755 87 68 72
204 362 -273.822 98 77 82
205 362 -279.17 106 85 90
206 362 -278.202 101 82 86
207 362 -275.627 95 75 77
208 362 -277.122 98 73 77
209 362 -278.856 101 79 82
211 362 -365.537 71 52 48
212 362 -350.984 80 53 60
213 362 -343.679 101 76 82
214 362 -351.485 77 56 63
215 362 -343.488 82 63 69
216 362 -347.461 75 54 61
217 362 -356.305 80 66 65
218 362 -352.551 79 68 66
58 361 -271.2 255 255 255
59 361 -272.414 255 254 255
60 361 -273.05 255 254 255
61 361 -271.129 255 254 255
62 361 -268.756 255 254 255
63 361 -271.214 255 252 255
64 361 -271.957 255 251 255
65 361 -271.398 251 236 243
66 361 -272.283 227 212 219
67 361 -272.2 210 193 201
68 361 -269.78 203 186 194
69 361 -271.486 197 180 190
70 361 -274.294 189 172 182
71 361 -271 185 169 180
72 361 -273.969 175 162 172
73 361 -271.376 175 163 175
74 361 -272.542 168 160 171
75 361 -271.832 165 159 169
76 361 -271.898 157 155 166
77 361 -271.182 146 149 158
78 361 -266.721 143 147 156
79 361 -267.012 142 147 153
80 361 -277.239 140 143 148
81 361 -274.479 136 140 143
82 361 -270.262 131 135 138
83 361 -267.733 128 132 135
84 361 -269.251 127 131 134
85 361 -269.79 127 130 135
86 361 -269.287 123 128 134
87 361 -271.678 116 120 129
88 361 -271.713 112 116 128
89 361 -273.072 112 115 130
90 361 -267.533 105 108 123
91 361 -270.434 114 116 131
92 361 -273.512 94 93 107
93 361 -277.027 89 87 101
94 361 -277.944 92 88 102
95 361 -278.325 92 89 100
96 361 -279.831 86 85 93
99 361 -269.632 85 86 90
101 361 -275.261 93 97 98
205 361 -266.95 70 50 52
206 361 -268.348 81 62 64
207 361 -268.885 99 80 82
208 361 -270.201 103 83 84
209 361 -270.457 103 85 85
212 361 -347.848 69 55 52
213 361 -341.65 90 71 75
214 361 -342.718 91 76 81
215 361 -344.812 85 73 77
216 361 -345.449 85 68 74
217 361 -347.998 90 81 76
218 361 -352.435 94 86 83
219 361 -342.499 86 73 80
220 361 -344.294 68 63 67
221 361 -354.696 58 54 51
222 361 -353.308 51 47 46
56 360 -261.99 255 255 255
57 360 -262.026 255 255 255
58 360 -264.111 255 253 255
59 360 -265.532 255 253 255
60 360 -265.441 255 253 255
61 360 -265.501 255 252 255
62 360 -265.111 255 251 255
63 360 -264.901 255 251 255
64 360 -264.49 251 234 244
65 360 -266.304 226 206 217
66 360 -265.372 208 188 199
67 360 -264.011 199 181 193
68 360 -263.829 198 182 193
69 360 -265.285 197 184 194
70 360 -265.746 188 176 186
71 360 -266.377 185 175 186
72 360 -267.313 179 173 183
73 360 -267.224 168 165 176
74 360 -265.608 166 164 175
75 360 -264.248 159 159 169
76 360 -265.948 151 153 165
77 360 -264.689 145 149 160
78 360 -260.378 133 140 150
79 360 -262.87 130 137 145
80 360 -271.454 132 136 139
81 360 -267.17 130 131 133
82 360 -266.513 122 123 127
83 360 -263.069 125 126 131
84 360 -267.612 117 120 127
85 360 -263.485 116 119 128
86 360 -261.784 112 116 127
87 360 -262.229 103 107 119
88 360 -260.865 100 106 118
89 360 -263.239 101 104 119
90 360 -260.925 98 101 116
91 360 -265.73 108 110 125
94 360 -270.867 87 85 99
95 360 -271.486 85 83 96
207 360 -262.771 68 57 55
209 360 -267.775 72 62 60
210 360 -266.06 78 73 70
211 360 -264.667 77 73 70
212 360 -266.332 72 71 67
213 360 -266.948 73 72 68
214 360 -267.083 76 72 71
55 359 -265.089 255 255 255
56 359 -266.809 255 255 255
57 359 -262.98 255 254 255
58 359 -257.929 255 252 255
59 359 -258.49 255 251 255
60 359 -259.276 255 252 255
61 359 -259.606 255 248 253
62 359 -260.148 239 228 234
63 359 -261.08 222 209 218
64 359 -259.15 224 207 217
65 359 -261.424 208 190 202
66 359 -261.212 198 180 192
67 359 -259.326 200 184 197
68 359 -258.715 200 186 199
69 359 -258.434 194 184 195
70 359 -259.144 186 178 189
71 359 -260.856 179 173 185
72 359 -263.252 167 164 175
73 359 -263.577 159 159 169
74 359 -257.726 154 157 166
75 359 -254.536 151 155 164
76 359 -258.313 146 153 163
77 359 -259 139 148 157
78 359 -256.206 129 138 147
79 359 -258.255 124 133 138
80 359 -261.564 125 131 131
81 359 -260.158 124 128 129
82 359 -261.824 119 123 126
83 359 -261.465 116 121 125
84 359 -268.27 107 111 120
85 359 -262.923 104 111 121
86 359 -257.833 98 104 116
87 359 -251.945 92 98 112
88 359 -251.698 91 97 111
89 359 -254.041 91 97 111
90 359 -252.708 93 96 111
91 359 -258.039 101 104 119
95 359 -265.622 82 82 94
96 359 -266.448 81 84 91
211 359 -258.344 60 59 55
212 359 -259.746 66 67 62
213 359 -260.158 70 69 65
214 359 -260.103 73 72 70
215 359 -260.574 74 73 71
216 359 -262.674 72 72 70
217 359 -261.424 71 76 72
218 359 -260.859 74 80 76
219 359 -263.33 64 73 68
55 358 -258.369 255 255 255
56 358 -257.176 255 254 255
57 358 -250.256 255 252 255
58 358 -249.344 255 252 255
59 358 -252.546 255 251 255
60 358 -254.144 255 247 255
61 358 -253.898 243 232 240
62 358 -252.816 227 214 223
63 358 -252.454 218 205 215
64 358 -253.595 216 202 215
65 358 -255.138 209 195 208
66 358 -255.678 200 186 199
67 358 -253.981 203 191 205
68 358 -251.844 198 187 201
69 358 -250.616 185 177 190
70 358 -252.658 178 172 184
71 358 -255.269 165 161 175
72 358 -257.76 159 157 170
73 358 -256.854 157 155 168
74 358 -247.268 150 150 162
75 358 -242.056 145 149 160
76 358 -251.22 139 146 156
77 358 -252.644 130 139 148
78 358 -248.283 122 132 141
79 358 -254.304 116 127 133
80 358 -259.333 117 127 128
81 358 -259.885 114 124 123
82 358 -258.96 112 122 123
83 358 -255.863 106 117 121
84 358 -258.899 99 109 118
85 358 -253.63 100 110 120
87 358 -245.918 82 91 106
88 358 -243.295 83 90 106
89 358 -245.969 84 90 106
90 358 -245.039 87 90 105
91 358 -250.731 92 95 110
95 358 -257.783 78 80 93
96 358 -255.819 75 82 88
